ply
format ascii 1.0
comment PCL generated
element vertex 1782
property float x
property float y
property float z
property uchar red
property uchar green
property uchar blue
property uchar alpha
element camera 0
property float view_px
property float view_py
property float view_pz
property float x_axisx
property float x_axisy
property float x_axisz
property float y_axisx
property float y_axisy
property float y_axisz
property float z_axisx
property float z_axisy
property float z_axisz
property float focal
property float scalex
property float scaley
property float centerx
property float centery
property int viewportx
property int viewporty
property float k1
property float k2
end_header
251 -1338 -762 128 0 0 0
246 -1339 -764 128 0 0 0
240 -1337 -764 128 0 0 0
235 -1340 -767 128 0 0 0
229 -1339 -767 128 0 0 0
224 -1342 -770 128 0 0 0
219 -1345 -773 128 0 0 0
213 -1343 -773 128 0 0 0
207 -1344 -774 128 0 1 0
202 -1344 -775 128 0 1 0
195 -1340 -774 128 0 0 0
190 -1340 -775 128 0 0 0
185 -1345 -779 128 0 0 0
180 -1350 -783 128 0 0 0
174 -1350 -784 128 0 0 0
169 -1361 -791 128 0 0 0
163 -1359 -791 128 0 0 0
157 -1358 -792 128 0 0 0
152 -1361 -795 128 0 0 0
146 -1366 -799 128 0 0 0
142 -1377 -807 128 0 0 0
137 -1389 -815 128 0 0 0
132 -1402 -823 128 0 0 0
129 -1441 -848 128 0 0 0
123 -1449 -854 129 0 1 0
117 -1453 -857 129 0 1 0
111 -1459 -862 129 0 1 0
105 -1456 -861 129 0 1 0
99 -1461 -865 129 0 1 0
92 -1464 -868 129 0 0 0
86 -1468 -872 129 0 0 0
79 -1469 -874 129 0 0 0
73 -1466 -873 128 0 0 0
66 -1465 -874 128 0 0 0
60 -1471 -878 128 0 0 0
53 -1470 -879 128 0 0 0
46 -1471 -881 126 0 1 0
26 -931 -558 126 0 1 0
29 -1307 -785 126 0 1 0
34 -1971 -1186 126 1 0 0
26 -2050 -1235 126 0 0 0
17 -2046 -1234 131 1 1 0
7 -2047 -1237 127 0 2 0
-1 -2050 -1240 126 0 6 0
-11 -2038 -1234 126 0 12 0
-20 -2028 -1230 122 0 22 0
-30 -2029 -1233 121 0 39 0
-39 -2029 -1234 134 7 76 0
-49 -2028 -1236 131 1 97 0
-58 -2020 -1233 134 3 119 0
-67 -2018 -1233 132 0 127 0
-77 -2024 -1239 130 0 131 0
-87 -2035 -1247 128 0 127 0
-98 -2061 -1265 128 0 125 0
-108 -2058 -1265 131 1 127 0
-118 -2057 -1266 130 0 126 0
-128 -2054 -1266 129 0 127 0
-138 -2064 -1274 129 0 127 0
-148 -2067 -1278 129 0 127 0
-159 -2071 -1282 129 0 127 0
-169 -2076 -1287 129 0 127 0
-181 -2092 -1299 129 0 127 0
-190 -2086 -1297 129 0 127 0
-200 -2075 -1292 129 0 127 0
-209 -2070 -1291 129 0 127 0
-220 -2074 -1295 129 0 127 0
-230 -2075 -1298 129 0 127 0
-242 -2090 -1309 129 0 127 0
-253 -2089 -1311 129 0 127 0
-263 -2087 -1311 129 0 127 0
-272 -2074 -1305 129 0 127 0
-280 -2056 -1295 127 0 129 0
-290 -2055 -1297 125 1 131 0
-300 -2052 -1297 125 0 130 0
-310 -2049 -1297 131 0 128 0
-320 -2048 -1298 133 0 127 0
-329 -2041 -1296 130 1 127 0
-339 -2036 -1295 126 1 127 0
-349 -2032 -1294 126 0 132 0
-355 -2007 -1280 121 3 123 0
-358 -1968 -1257 110 15 105 0
-20 -117 -75 88 29 83 0
-360 -1872 -1199 61 49 59 0
-367 -1861 -1194 55 90 57 0
-374 -1847 -1187 28 109 33 0
-383 -1844 -1187 15 115 19 0
-391 -1836 -1184 16 110 14 0
-397 -1820 -1175 20 119 13 0
-405 -1809 -1169 2 120 0 0
-411 -1796 -1163 3 126 0 0
-418 -1782 -1156 10 122 10 0
-427 -1781 -1157 27 110 32 0
-435 -1778 -1156 104 136 112 0
-443 -1768 -1152 125 134 133 0
-450 -1758 -1147 123 127 128 0
-459 -1757 -1148 129 131 130 0
-183 -691 -452 129 129 129 0
-96 -361 -237 115 133 135 0
-273 -988 -649 88 141 145 0
-492 -1738 -1143 28 116 120 0
-498 -1728 -1138 8 126 126 0
-505 -1719 -1134 0 129 125 0
-514 -1717 -1134 0 131 130 0
-523 -1715 -1135 0 127 128 0
-588 -1892 -1254 4 126 129 0
-617 -1951 -1295 4 126 129 0
-620 -1926 -1280 4 126 129 0
-627 -1916 -1276 2 127 129 0
-641 -1924 -1283 0 128 129 0
-653 -1927 -1287 0 129 129 0
-661 -1921 -1285 2 127 129 0
-377 -1080 -724 3 127 129 0
-113 -323 -217 8 130 133 0
-626 -1733 -1165 3 127 129 0
-635 -1730 -1165 0 126 125 0
-642 -1723 -1162 0 132 129 0
-652 -1721 -1162 0 126 123 0
-658 -1712 -1158 0 123 120 0
-668 -1713 -1161 10 124 125 0
-681 -1719 -1167 22 120 121 0
-690 -1716 -1167 38 116 116 0
-699 -1715 -1168 69 98 94 0
-705 -1703 -1162 75 27 15 0
-710 -1692 -1156 102 14 2 0
-715 -1680 -1149 99 8 3 0
0 0 0 0 0 0 0
0 0 0 0 0 0 0
0 0 0 0 0 0 0
0 0 0 0 0 0 0
-115 -256 -177 125 1 0 0
-629 -1364 -942 130 0 0 0
-633 -1355 -938 128 0 0 0
-639 -1349 -935 132 2 0 0
-644 -1344 -933 129 0 0 0
-648 -1335 -928 128 0 0 0
-649 -1320 -920 130 2 3 0
-651 -1308 -913 126 1 0 0
-651 -1292 -903 126 1 0 0
-649 -1271 -890 129 0 0 0
-650 -1257 -882 131 0 0 0
-653 -1250 -878 132 0 0 0
-657 -1242 -874 131 0 0 0
-662 -1237 -872 128 0 0 0
-667 -1231 -869 125 2 0 0
-673 -1228 -868 124 2 0 0
-680 -1226 -868 124 2 0 0
-684 -1220 -866 125 1 0 0
-692 -1219 -867 128 0 0 0
-699 -1218 -867 129 0 1 0
-704 -1214 -866 131 0 1 0
-710 -1211 -865 131 0 1 0
-719 -1212 -867 129 0 1 0
-728 -1215 -871 129 0 0 0
-736 -1214 -872 128 0 0 0
-740 -1208 -869 128 0 0 0
-747 -1207 -869 128 0 0 0
-752 -1202 -867 128 0 0 0
-758 -1198 -866 128 0 0 0
-764 -1196 -866 128 0 0 0
-772 -1196 -867 128 0 0 0
-780 -1196 -869 128 0 0 0
-787 -1194 -869 128 0 0 0
-794 -1193 -870 128 0 0 0
-800 -1190 -869 128 0 0 0
-807 -1188 -869 128 0 0 0
-811 -1182 -867 128 0 0 0
-815 -1176 -863 128 0 0 0
-817 -1167 -859 128 0 0 0
-821 -1162 -856 128 0 0 0
-827 -1159 -855 128 0 0 0
-833 -1156 -855 128 0 0 0
-840 -1155 -855 128 0 0 0
-844 -1149 -853 128 0 0 0
-852 -1149 -854 128 0 0 0
-858 -1146 -853 128 0 0 0
343 -1336 -751 0 1 0 0
338 -1335 -752 0 1 0 0
332 -1332 -751 22 0 0 0
325 -1328 -749 107 9 10 0
319 -1324 -748 129 0 1 0
316 -1331 -753 126 1 0 0
311 -1335 -756 125 2 0 0
306 -1334 -757 125 1 0 0
300 -1332 -757 125 1 0 0
294 -1330 -756 126 1 0 0
289 -1333 -759 128 0 0 0
283 -1327 -757 128 0 0 0
278 -1330 -760 128 0 0 0
272 -1329 -760 128 0 0 0
268 -1333 -764 128 0 0 0
263 -1338 -767 128 0 0 0
257 -1335 -767 128 0 0 0
252 -1337 -769 128 0 0 0
246 -1336 -770 128 0 0 0
241 -1338 -772 128 0 0 0
235 -1337 -772 128 0 0 0
230 -1341 -776 128 0 0 0
225 -1342 -777 128 0 0 0
220 -1345 -780 128 0 0 0
214 -1347 -782 128 0 0 0
208 -1343 -781 128 0 0 0
202 -1342 -781 128 0 0 0
196 -1340 -781 128 0 0 0
191 -1345 -785 128 0 0 0
186 -1344 -786 128 0 0 0
181 -1351 -791 128 0 0 0
175 -1354 -794 128 0 1 0
170 -1360 -798 128 0 1 0
165 -1361 -800 128 0 0 0
159 -1361 -801 128 0 0 0
153 -1365 -805 128 0 0 0
150 -1390 -821 128 0 0 0
147 -1420 -839 128 0 0 0
142 -1436 -850 128 0 0 0
138 -1452 -861 128 0 0 0
131 -1450 -861 128 0 0 0
124 -1448 -861 129 0 0 0
118 -1448 -862 129 0 0 0
112 -1451 -865 129 0 0 0
105 -1451 -866 129 0 0 0
99 -1457 -871 129 0 1 0
93 -1458 -873 129 0 1 0
87 -1466 -879 129 0 0 0
80 -1467 -880 129 0 0 0
74 -1465 -880 129 0 0 0
67 -1470 -885 129 0 0 0
60 -1468 -885 128 0 0 0
54 -1468 -886 128 0 0 0
47 -1468 -888 128 0 1 0
13 -400 -243 126 0 3 0
37 -1608 -975 126 0 1 0
29 -1598 -970 126 1 0 0
27 -2027 -1232 129 2 0 0
18 -2036 -1240 127 0 0 0
8 -2032 -1239 128 2 3 0
0 -2021 -1234 126 0 12 0
-10 -2029 -1240 122 0 33 0
-19 -2020 -1237 122 0 57 0
-28 -2019 -1238 132 3 95 0
-38 -2029 -1246 132 1 113 0
-48 -2027 -1246 131 1 123 0
-57 -2021 -1245 130 1 130 0
-67 -2031 -1253 128 0 128 0
-77 -2034 -1256 126 0 128 0
-87 -2051 -1269 130 1 130 0
-97 -2059 -1276 131 2 129 0
-107 -2057 -1276 132 2 126 0
-118 -2069 -1285 128 0 122 0
-127 -2068 -1286 129 0 126 0
-137 -2063 -1285 129 0 127 0
-147 -2064 -1288 129 0 127 0
-158 -2073 -1295 129 0 127 0
-168 -2071 -1296 129 0 127 0
-180 -2091 -1310 129 0 127 0
-189 -2079 -1305 129 0 127 0
-198 -2071 -1302 129 0 127 0
-208 -2065 -1300 129 0 127 0
-218 -2062 -1300 129 0 127 0
-228 -2060 -1301 129 0 127 0
-240 -2073 -1310 129 0 127 0
-250 -2074 -1313 129 0 127 0
-260 -2072 -1314 129 0 127 0
-269 -2058 -1307 129 0 127 0
-276 -2035 -1294 127 0 129 0
-285 -2026 -1291 126 0 133 0
-293 -2010 -1282 125 0 130 0
-304 -2014 -1287 128 0 123 0
-315 -2017 -1291 129 1 122 0
-325 -2021 -1295 127 1 126 0
-336 -2020 -1296 127 0 129 0
-347 -2024 -1301 127 0 133 0
-355 -2013 -1296 126 1 129 0
-362 -1991 -1284 121 3 115 0
-366 -1959 -1265 118 10 111 0
-368 -1915 -1238 106 11 103 0
-371 -1880 -1217 84 29 87 0
-376 -1859 -1206 73 79 79 0
-384 -1848 -1200 54 89 57 0
-392 -1841 -1198 57 88 56 0
-396 -1815 -1182 45 98 42 0
-403 -1805 -1178 15 118 13 0
-410 -1792 -1171 8 125 8 0
-417 -1781 -1166 18 112 16 0
-426 -1777 -1165 91 155 94 0
-435 -1775 -1165 109 141 120 0
-443 -1771 -1165 121 131 132 0
-450 -1762 -1161 124 126 125 0
-372 -1428 -942 129 128 126 0
-517 -1940 -1281 129 129 129 0
-526 -1935 -1280 113 133 134 0
0 0 0 0 0 0 0
-489 -1730 -1149 27 118 119 0
-497 -1724 -1146 6 125 123 0
-505 -1718 -1144 1 131 129 0
-513 -1714 -1143 0 126 126 0
-522 -1711 -1143 2 130 131 0
-528 -1700 -1137 0 128 129 0
-612 -1934 -1296 0 128 129 0
-617 -1918 -1287 0 128 129 0
-625 -1910 -1284 0 128 129 0
-636 -1908 -1285 0 129 129 0
-647 -1909 -1287 0 129 129 0
-658 -1911 -1291 0 128 131 0
0 0 0 0 0 0 0
-461 -1297 -879 3 128 130 0
-625 -1729 -1174 0 125 126 0
-632 -1722 -1170 0 130 129 0
-638 -1710 -1164 0 131 128 0
-647 -1709 -1165 2 130 129 0
-654 -1702 -1162 8 126 126 0
-661 -1693 -1158 19 124 128 0
-671 -1692 -1159 24 113 119 0
-680 -1691 -1160 37 111 114 0
-688 -1685 -1158 55 103 103 0
-696 -1682 -1158 81 92 86 0
-700 -1666 -1149 11 0 0 0
-175 -415 -287 28 0 0 0
-132 -310 -215 31 0 0 0
0 0 0 0 0 0 0
-134 -306 -213 85 17 18 0
0 0 0 0 0 0 0
0 0 0 0 0 0 0
0 0 0 0 0 0 0
-632 -1352 -944 130 2 1 0
-639 -1348 -943 123 0 0 0
-644 -1343 -941 131 2 6 0
-648 -1333 -936 127 0 0 0
-651 -1322 -930 128 0 0 0
-652 -1309 -922 129 0 0 0
-656 -1301 -918 129 0 0 0
-656 -1284 -907 131 0 0 0
-656 -1269 -898 131 0 0 0
-656 -1253 -889 131 0 0 0
-655 -1237 -879 131 0 0 0
-658 -1228 -874 129 0 0 0
-662 -1220 -870 128 0 0 0
-669 -1219 -870 126 0 1 0
-674 -1216 -869 125 1 1 0
-681 -1213 -869 126 0 1 0
-686 -1208 -867 126 0 1 0
-692 -1205 -866 128 0 1 0
-697 -1201 -865 129 0 1 0
-705 -1201 -866 131 0 0 0
-714 -1202 -869 129 0 0 0
-721 -1201 -869 129 0 0 0
-727 -1199 -869 128 0 0 0
-734 -1196 -869 128 0 0 0
-740 -1194 -868 128 0 0 0
-747 -1192 -869 128 0 0 0
-753 -1189 -868 128 0 0 0
-760 -1187 -868 128 0 0 0
-767 -1186 -869 128 0 0 0
-769 -1177 -864 128 0 0 0
-778 -1179 -867 128 0 0 0
-786 -1179 -868 128 0 0 0
-793 -1177 -868 128 0 0 0
-799 -1175 -868 128 0 0 0
-803 -1169 -865 128 0 0 0
-807 -1163 -862 128 0 0 0
-809 -1154 -857 128 0 0 0
-815 -1152 -857 128 0 0 0
-821 -1150 -857 128 0 0 0
-827 -1147 -856 128 0 0 0
-832 -1142 -854 128 0 0 0
-839 -1141 -855 128 0 0 0
-848 -1142 -857 128 0 0 0
-856 -1142 -859 128 0 0 0
345 -1335 -758 0 1 0 0
339 -1334 -758 0 1 0 0
333 -1333 -758 21 0 0 0
327 -1328 -757 105 9 10 0
320 -1323 -754 128 0 1 0
316 -1329 -759 128 0 0 0
312 -1333 -763 126 1 0 0
308 -1337 -766 125 1 0 0
302 -1335 -765 125 1 0 0
296 -1333 -765 126 1 0 0
290 -1331 -765 128 0 0 0
285 -1330 -766 128 0 0 0
279 -1328 -766 128 0 0 0
274 -1331 -769 128 0 0 0
269 -1336 -772 128 0 0 0
265 -1340 -776 128 0 0 0
259 -1339 -776 128 0 0 0
253 -1338 -777 128 0 0 0
248 -1338 -777 128 0 0 0
242 -1338 -778 128 0 0 0
236 -1337 -779 128 0 0 0
231 -1341 -782 128 0 0 0
226 -1343 -785 128 0 0 0
220 -1341 -784 128 0 0 0
215 -1343 -787 128 0 0 0
209 -1342 -787 128 0 0 0
204 -1345 -790 128 0 0 0
198 -1345 -791 128 0 0 0
192 -1345 -792 128 0 0 0
187 -1350 -796 128 0 0 0
182 -1356 -801 128 0 0 0
177 -1358 -804 128 0 1 0
171 -1361 -806 128 0 1 0
165 -1360 -807 128 0 0 0
162 -1381 -820 128 0 0 0
161 -1427 -849 128 0 0 0
156 -1437 -856 128 0 0 0
150 -1439 -858 128 0 0 0
144 -1443 -862 128 0 0 0
138 -1450 -867 128 0 0 0
132 -1447 -867 128 0 0 0
125 -1445 -867 128 1 0 0
119 -1449 -870 128 1 0 0
113 -1450 -872 129 0 0 0
107 -1453 -875 129 0 0 0
100 -1457 -879 129 0 0 0
94 -1453 -878 129 0 0 0
87 -1459 -883 129 0 0 0
81 -1464 -887 129 0 0 0
75 -1466 -889 129 0 0 0
68 -1468 -892 129 0 0 0
61 -1466 -892 128 1 0 0
55 -1467 -893 128 0 0 0
23 -670 -409 128 0 1 0
45 -1614 -986 128 0 1 0
38 -1604 -981 128 0 1 0
30 -1596 -978 128 0 0 0
23 -1593 -977 127 0 2 0
19 -2027 -1245 127 0 9 0
9 -2030 -1249 123 0 17 0
0 -2016 -1242 121 0 33 0
-8 -2017 -1244 133 6 73 0
-18 -2026 -1252 131 4 95 0
-27 -2024 -1253 130 1 117 0
-37 -2027 -1256 130 1 128 0
-46 -2025 -1257 125 0 129 0
-56 -2037 -1266 127 2 132 0
-66 -2046 -1273 128 3 131 0
-76 -2051 -1278 127 2 128 0
-86 -2055 -1283 128 0 126 0
-96 -2057 -1286 128 0 126 0
-107 -2069 -1295 130 0 124 0
-116 -2067 -1296 132 2 126 0
-126 -2064 -1296 129 0 126 0
-137 -2070 -1301 129 0 127 0
-146 -2057 -1295 129 0 127 0
-156 -2065 -1302 129 0 127 0
-166 -2061 -1302 129 0 127 0
-177 -2069 -1308 129 0 127 0
-186 -2055 -1302 129 0 127 0
-195 -2049 -1300 129 0 127 0
-205 -2040 -1296 129 0 127 0
-214 -2036 -1295 129 0 127 0
-223 -2027 -1291 129 0 127 0
-232 -2018 -1288 129 0 127 0
-243 -2025 -1294 129 0 127 0
-253 -2020 -1292 129 0 127 0
-264 -2023 -1297 129 0 127 0
-272 -2013 -1292 127 0 129 0
-282 -2008 -1291 126 1 131 0
-291 -2001 -1288 126 1 129 0
-301 -1997 -1287 127 2 122 0
-311 -1996 -1289 128 0 119 0
-321 -1996 -1291 126 0 125 0
-332 -2002 -1297 127 0 129 0
-343 -2006 -1301 128 1 134 0
-352 -2000 -1300 128 1 132 0
-360 -1986 -1292 132 2 126 0
-368 -1972 -1285 131 1 125 0
-375 -1953 -1275 135 0 131 0
-384 -1947 -1273 114 6 115 0
-397 -1961 -1284 85 30 87 0
-404 -1948 -1277 67 38 69 0
-180 -850 -558 74 43 75 0
0 0 0 0 0 0 0
-299 -1344 -885 52 92 55 0
-409 -1787 -1179 42 96 44 0
-416 -1778 -1175 57 87 53 0
-424 -1771 -1172 121 133 119 0
-432 -1767 -1171 126 127 132 0
-442 -1766 -1172 128 128 138 0
-367 -1438 -956 125 133 136 0
-218 -842 -561 118 134 133 0
-515 -1933 -1289 115 133 135 0
-489 -1800 -1202 103 143 145 0
0 0 0 0 0 0 0
-490 -1732 -1160 16 120 121 0
-496 -1722 -1155 1 123 124 0
-504 -1716 -1153 0 130 130 0
-513 -1712 -1153 0 127 128 0
-521 -1710 -1153 1 129 130 0
-582 -1874 -1265 0 129 129 0
-607 -1921 -1299 0 130 129 0
-615 -1910 -1294 0 129 129 0
-624 -1904 -1292 0 129 129 0
-635 -1905 -1294 0 130 129 0
-645 -1904 -1296 0 129 129 0
-531 -1542 -1051 0 128 131 0
0 0 0 0 0 0 0
-501 -1408 -963 0 125 126 0
-624 -1725 -1182 2 132 132 0
-629 -1712 -1174 0 130 129 0
-633 -1697 -1166 0 129 128 0
-642 -1695 -1167 1 127 126 0
-650 -1690 -1165 3 121 123 0
-655 -1677 -1158 18 123 129 0
-663 -1673 -1157 0 25 32 0
-670 -1666 -1154 0 17 23 0
-672 -1645 -1142 0 16 18 0
-674 -1628 -1132 0 12 11 0
-686 -1632 -1136 0 5 5 0
-703 -1649 -1150 1 0 4 0
-713 -1650 -1152 11 0 0 0
-720 -1644 -1150 15 0 0 0
-180 -407 -286 26 0 0 0
-731 -1623 -1139 46 0 0 0
-598 -1313 -923 100 15 18 0
0 0 0 0 0 0 0
0 0 0 0 0 0 0
-479 -1011 -714 131 5 9 0
-522 -1088 -770 125 0 0 0
-648 -1331 -944 127 0 0 0
-650 -1320 -937 131 1 1 0
-653 -1309 -931 128 0 0 0
-657 -1300 -926 128 0 0 0
-665 -1300 -928 129 0 0 0
-664 -1283 -917 131 0 0 0
-664 -1268 -908 131 0 0 0
-663 -1250 -896 131 0 0 0
-662 -1233 -886 129 0 0 0
-662 -1219 -877 128 0 1 0
-666 -1213 -874 126 0 1 0
-672 -1209 -873 126 0 1 0
-677 -1205 -871 126 0 1 0
-682 -1200 -870 126 0 1 0
-687 -1196 -868 128 0 1 0
-691 -1190 -865 128 0 0 0
-698 -1188 -865 129 0 0 0
-707 -1190 -868 129 0 0 0
-714 -1189 -868 128 0 0 0
-723 -1190 -871 128 0 0 0
-728 -1186 -870 128 0 0 0
-734 -1183 -868 128 0 0 0
-741 -1181 -869 128 0 0 0
-748 -1180 -870 128 0 0 0
-755 -1180 -871 128 0 0 0
-761 -1175 -869 128 0 0 0
-764 -1169 -866 128 0 0 0
-772 -1168 -867 128 0 0 0
-778 -1165 -866 128 0 0 0
-780 -1158 -862 128 0 0 0
-785 -1153 -860 128 0 0 0
-789 -1148 -857 128 0 0 0
-794 -1143 -856 128 0 0 0
-802 -1143 -857 128 0 0 0
-805 -1137 -854 128 0 0 0
-813 -1136 -855 128 0 0 0
-818 -1132 -853 128 0 0 0
-825 -1131 -854 128 0 0 0
-833 -1131 -856 128 0 0 0
-630 -848 -643 128 0 0 0
-854 -1138 -863 128 0 0 0
346 -1337 -765 0 0 0 0
341 -1336 -766 0 2 0 0
335 -1335 -766 20 0 0 0
329 -1330 -764 104 10 11 0
323 -1331 -766 128 0 1 0
318 -1331 -767 128 0 0 0
313 -1332 -769 128 0 0 0
308 -1334 -771 128 0 0 0
302 -1332 -771 126 1 0 0
297 -1331 -771 128 0 0 0
291 -1330 -771 128 0 0 0
286 -1333 -774 128 0 0 0
280 -1331 -774 128 0 0 0
275 -1333 -776 128 0 0 0
270 -1335 -779 128 0 0 0
265 -1337 -781 128 0 0 0
260 -1336 -781 128 0 0 0
254 -1338 -783 128 0 0 0
249 -1336 -783 128 0 0 0
243 -1333 -783 128 0 0 0
238 -1337 -786 128 0 0 0
233 -1340 -789 128 0 0 0
228 -1345 -793 128 0 0 0
222 -1342 -792 128 0 0 0
216 -1343 -794 128 0 0 0
210 -1340 -793 128 0 0 0
205 -1345 -797 128 0 0 0
199 -1343 -797 128 0 0 0
194 -1349 -802 128 0 0 0
188 -1349 -803 128 0 1 0
184 -1356 -808 128 0 1 0
178 -1357 -810 128 0 1 0
172 -1361 -813 128 0 1 0
43 -336 -201 128 0 1 0
169 -1434 -860 128 0 1 0
163 -1433 -860 128 0 0 0
157 -1432 -861 128 0 0 0
151 -1435 -863 128 0 0 0
144 -1435 -865 128 0 0 0
139 -1442 -870 128 1 0 0
133 -1445 -873 128 0 0 0
126 -1444 -874 128 0 0 0
120 -1447 -877 126 1 0 0
114 -1446 -878 128 1 0 0
107 -1451 -882 128 1 0 0
101 -1458 -887 128 0 0 0
95 -1456 -887 128 0 0 0
88 -1456 -889 128 0 1 0
82 -1463 -894 128 0 0 0
75 -1459 -893 129 0 0 0
69 -1465 -898 129 0 0 0
62 -1463 -898 129 0 0 0
45 -1188 -730 129 0 0 0
41 -1212 -746 129 0 0 0
46 -1601 -987 129 0 0 0
38 -1596 -985 129 0 0 0
31 -1588 -982 128 0 4 0
24 -1586 -982 128 0 17 0
18 -1776 -1101 124 0 33 0
11 -2019 -1253 124 0 58 0
1 -2016 -1253 133 1 87 0
-7 -2022 -1259 135 4 110 0
-17 -2029 -1265 130 1 119 0
-26 -2030 -1268 131 3 124 0
-36 -2026 -1267 126 2 122 0
-45 -2032 -1273 128 4 126 0
-55 -2035 -1276 126 2 126 0
-66 -2054 -1290 125 1 125 0
-76 -2060 -1296 125 1 125 0
-85 -2054 -1294 129 0 126 0
-95 -2052 -1295 129 0 126 0
-105 -2065 -1305 129 0 125 0
-115 -2064 -1306 130 0 126 0
-125 -2063 -1307 129 0 127 0
-135 -2059 -1306 129 0 127 0
-144 -2045 -1300 129 0 127 0
-154 -2042 -1300 129 0 127 0
-164 -2051 -1307 129 0 127 0
-174 -2046 -1306 129 0 127 0
-183 -2031 -1298 129 0 127 0
-193 -2029 -1299 129 0 127 0
-202 -2027 -1300 129 0 127 0
-212 -2022 -1298 129 0 127 0
-222 -2018 -1297 129 0 127 0
-231 -2013 -1296 129 0 127 0
-241 -2011 -1297 129 0 127 0
-251 -2010 -1298 129 0 127 0
-261 -2010 -1300 129 0 127 0
-271 -2005 -1299 127 1 127 0
-281 -2004 -1300 126 1 127 0
-290 -2001 -1300 126 2 126 0
-299 -1989 -1295 129 1 122 0
-310 -1999 -1303 130 0 122 0
-321 -1998 -1304 128 0 125 0
-330 -1994 -1303 127 0 129 0
-340 -1991 -1303 127 0 133 0
-350 -1990 -1304 127 0 133 0
-359 -1982 -1301 124 0 124 0
-367 -1968 -1295 132 4 127 0
-374 -1952 -1286 129 0 123 0
-385 -1954 -1289 127 4 120 0
-395 -1954 -1291 112 12 108 0
-405 -1951 -1291 109 19 107 0
-413 -1942 -1287 108 12 110 0
-422 -1935 -1285 104 15 107 0
-323 -1449 -963 92 22 95 0
-245 -1077 -718 95 28 95 0
-76 -331 -221 98 21 93 0
-104 -441 -295 96 21 90 0
-105 -438 -294 165 108 161 0
-108 -440 -295 138 114 148 0
-462 -1807 -1212 111 133 144 0
-501 -1921 -1291 91 142 143 0
-511 -1919 -1292 86 143 150 0
-389 -1432 -965 34 111 117 0
0 0 0 0 0 0 0
-491 -1737 -1175 4 126 131 0
-496 -1720 -1165 4 131 137 0
-504 -1715 -1163 1 130 135 0
-512 -1709 -1161 0 127 123 0
-520 -1705 -1160 0 129 124 0
-242 -783 -534 0 129 127 0
-601 -1899 -1296 0 129 127 0
-610 -1894 -1295 0 130 129 0
-618 -1888 -1293 0 130 129 0
-629 -1887 -1294 0 130 129 0
-158 -471 -324 0 129 129 0
-160 -468 -322 2 127 129 0
-149 -429 -296 3 127 129 0
-616 -1731 -1195 4 128 130 0
-622 -1721 -1190 2 127 129 0
-631 -1717 -1189 1 129 130 0
-635 -1701 -1180 0 130 130 0
-641 -1692 -1175 0 128 129 0
-646 -1678 -1167 6 130 132 0
-655 -1675 -1167 5 123 127 0
-659 -1661 -1160 29 116 123 0
-663 -1647 -1151 0 12 19 0
-666 -1631 -1142 0 3 9 0
-673 -1623 -1139 0 4 7 0
-681 -1621 -1139 0 3 5 0
-696 -1632 -1149 2 1 6 0
-711 -1644 -1159 5 0 1 0
-720 -1643 -1160 8 0 0 0
0 0 0 0 0 0 0
-586 -1303 -923 14 0 0 0
-724 -1585 -1125 29 0 0 0
-541 -1171 -832 99 17 21 0
-548 -1170 -833 111 2 5 0
-555 -1169 -834 125 2 4 0
0 0 0 0 0 0 0
-119 -246 -176 132 0 0 0
-650 -1318 -944 130 0 0 0
-652 -1307 -938 125 1 1 0
-657 -1300 -935 124 2 1 0
-665 -1299 -935 128 0 1 0
-671 -1296 -935 131 0 1 0
-670 -1278 -924 131 0 1 0
-671 -1266 -916 131 0 1 0
-671 -1250 -906 129 0 1 0
-672 -1236 -898 128 0 3 0
-668 -1215 -884 126 0 3 0
-669 -1203 -876 126 0 3 0
-673 -1197 -874 126 0 1 0
-677 -1190 -870 128 0 1 0
-682 -1185 -868 129 0 0 0
-687 -1180 -866 128 0 0 0
-693 -1178 -866 128 0 0 0
-700 -1177 -866 128 0 0 0
-708 -1177 -868 128 0 0 0
-716 -1177 -870 128 0 0 0
-722 -1175 -869 128 0 0 0
-728 -1172 -869 128 0 0 0
-736 -1172 -870 128 0 0 0
-743 -1171 -871 128 0 0 0
-749 -1169 -871 128 0 0 0
-755 -1165 -870 128 0 0 0
-759 -1159 -867 128 0 0 0
-765 -1157 -866 128 0 0 0
-769 -1150 -863 128 0 0 0
-773 -1145 -861 128 0 0 0
-775 -1137 -856 128 0 0 0
-780 -1133 -855 128 0 0 0
-789 -1135 -858 128 0 0 0
-799 -1138 -861 128 0 0 0
-801 -1130 -856 128 0 0 0
-806 -1125 -855 128 0 0 0
-811 -1121 -853 128 0 0 0
-818 -1121 -854 128 0 0 0
-205 -279 -213 128 0 0 0
0 0 0 0 0 0 0
-693 -922 -707 128 0 0 0
348 -1340 -774 0 0 0 0
343 -1339 -774 0 2 0 0
338 -1340 -776 20 0 0 0
331 -1333 -773 105 9 11 0
326 -1334 -775 129 0 1 0
320 -1332 -774 129 0 0 0
314 -1329 -774 129 0 0 0
309 -1332 -776 129 0 0 0
303 -1330 -776 128 0 0 0
298 -1333 -779 128 0 0 0
293 -1335 -781 128 0 0 0
288 -1337 -784 128 0 0 0
283 -1335 -784 128 0 0 0
277 -1334 -784 128 0 0 0
272 -1335 -786 128 0 0 0
266 -1334 -786 128 0 0 0
260 -1333 -786 128 0 0 0
255 -1336 -789 128 0 0 0
249 -1333 -789 128 0 0 0
243 -1332 -789 128 0 0 0
239 -1339 -794 128 0 0 0
234 -1340 -796 128 0 0 0
229 -1343 -799 128 0 0 0
223 -1343 -800 128 0 0 0
217 -1344 -802 128 0 0 0
212 -1345 -804 128 0 0 0
206 -1345 -805 128 0 0 0
201 -1346 -806 128 0 0 0
196 -1353 -811 128 0 0 0
190 -1355 -814 128 0 1 0
174 -1273 -766 128 0 1 0
71 -524 -316 128 0 1 0
183 -1437 -866 128 0 1 0
177 -1435 -867 128 0 1 0
170 -1430 -865 128 0 1 0
164 -1431 -866 128 0 0 0
157 -1429 -866 128 0 0 0
151 -1428 -867 128 0 0 0
145 -1433 -871 128 0 0 0
139 -1438 -876 128 0 0 0
134 -1443 -880 128 0 0 0
127 -1445 -882 126 0 1 0
121 -1447 -885 126 0 1 0
114 -1445 -885 126 1 0 0
108 -1449 -889 126 1 0 0
102 -1453 -892 128 0 0 0
95 -1451 -892 128 0 0 0
89 -1450 -893 128 0 1 0
83 -1456 -898 128 0 1 0
76 -1455 -899 128 0 1 0
76 -1592 -985 128 0 1 0
53 -1221 -756 128 0 0 0
-1218 -1044 -883 147 117 117 0
54 -1586 -985 128 0 4 0
46 -1585 -986 128 0 10 0
39 -1582 -985 128 0 17 0
32 -1579 -985 126 0 27 0
24 -1575 -984 125 0 43 0
17 -1571 -983 135 6 73 0
12 -2027 -1270 134 3 97 0
2 -2024 -1269 136 3 118 0
-6 -2029 -1275 132 0 127 0
-16 -2036 -1281 128 0 128 0
-25 -2036 -1283 126 0 125 0
-35 -2023 -1277 125 1 121 0
-44 -2027 -1281 127 4 121 0
-54 -2033 -1287 125 1 121 0
-64 -2047 -1297 126 2 126 0
-74 -2056 -1305 128 2 128 0
-84 -2051 -1303 130 1 128 0
-94 -2048 -1303 130 1 128 0
-104 -2050 -1307 129 0 126 0
-114 -2055 -1312 131 0 128 0
-123 -2046 -1308 129 0 127 0
-133 -2038 -1305 129 0 127 0
-143 -2040 -1308 129 0 127 0
-152 -2036 -1307 129 0 127 0
-162 -2036 -1309 129 0 127 0
-172 -2031 -1308 129 0 127 0
-182 -2030 -1309 129 0 127 0
-191 -2025 -1308 129 0 127 0
-201 -2019 -1306 129 0 127 0
-209 -2006 -1299 129 0 127 0
-219 -2003 -1300 129 0 127 0
-229 -2003 -1302 129 0 127 0
-239 -1999 -1301 129 0 127 0
-249 -2004 -1306 129 0 127 0
-259 -1999 -1305 129 0 127 0
-269 -2000 -1307 129 0 127 0
-278 -1988 -1302 126 0 125 0
-287 -1983 -1300 127 1 126 0
-297 -1982 -1302 129 1 124 0
-307 -1983 -1304 130 0 124 0
-318 -1983 -1306 129 0 127 0
-326 -1975 -1303 130 1 130 0
-336 -1968 -1300 129 0 133 0
-344 -1959 -1296 126 0 130 0
-354 -1960 -1299 128 2 128 0
-363 -1952 -1295 129 0 126 0
-373 -1948 -1295 129 0 123 0
-383 -1950 -1298 131 1 123 0
-394 -1950 -1300 125 2 119 0
-403 -1947 -1300 125 1 121 0
-412 -1938 -1296 129 2 131 0
-421 -1935 -1296 126 0 130 0
-431 -1930 -1295 129 2 133 0
-439 -1923 -1292 126 0 126 0
-447 -1911 -1286 129 0 126 0
-457 -1910 -1287 129 8 123 0
-467 -1908 -1288 106 11 101 0
-479 -1914 -1294 87 28 94 0
-489 -1916 -1297 94 86 127 0
-497 -1904 -1292 65 95 121 0
-506 -1901 -1292 44 107 125 0
-510 -1876 -1276 24 116 129 0
-492 -1776 -1210 8 127 133 0
-493 -1743 -1190 0 130 134 0
-498 -1726 -1180 0 124 133 0
-502 -1710 -1171 0 126 131 0
-511 -1706 -1170 4 133 129 0
-522 -1713 -1176 0 127 122 0
-131 -427 -294 0 129 125 0
-592 -1872 -1290 0 128 127 0
-603 -1873 -1293 0 129 129 0
-612 -1868 -1291 0 129 129 0
-113 -345 -239 0 129 129 0
-144 -430 -298 0 128 129 0
-593 -1721 -1195 2 127 129 0
-603 -1721 -1197 3 127 129 0
-613 -1721 -1199 3 127 129 0
-621 -1717 -1198 2 126 128 0
-630 -1714 -1198 1 129 130 0
-633 -1696 -1187 0 129 129 0
-640 -1687 -1183 0 129 129 0
-645 -1675 -1176 0 127 127 0
-654 -1672 -1176 3 128 130 0
-657 -1655 -1166 20 118 121 0
-658 -1635 -1154 0 13 19 0
-663 -1623 -1147 0 8 12 0
-670 -1617 -1145 0 3 4 0
-679 -1614 -1145 0 4 5 0
-691 -1619 -1150 0 1 0 0
-705 -1629 -1159 0 0 0 0
-175 -402 -287 1 0 0 0
0 0 0 0 0 0 0
-129 -289 -207 0 0 2 0
-711 -1557 -1115 13 0 0 0
-716 -1548 -1110 43 0 0 0
-724 -1545 -1110 99 8 13 0
-735 -1547 -1113 120 4 4 0
-750 -1558 -1123 129 2 0 0
-764 -1568 -1132 129 0 0 0
0 0 0 0 0 0 0
-489 -979 -709 124 2 1 0
-659 -1303 -946 122 2 3 0
-664 -1296 -942 126 0 3 0
-671 -1295 -943 128 0 3 0
-671 -1279 -933 129 0 3 0
-673 -1268 -927 129 0 1 0
-679 -1263 -924 128 0 3 0
-683 -1256 -921 126 0 1 0
-682 -1240 -910 126 0 3 0
-679 -1220 -898 126 0 1 0
-677 -1203 -887 128 0 1 0
-676 -1188 -877 129 0 0 0
-680 -1181 -873 129 0 0 0
-683 -1173 -869 128 0 0 0
-688 -1169 -867 126 1 0 0
-696 -1168 -868 126 1 0 0
-702 -1165 -868 128 0 0 0
-708 -1163 -868 128 0 0 0
-716 -1163 -869 128 0 0 0
-723 -1162 -870 128 0 0 0
-730 -1161 -870 128 0 0 0
-736 -1159 -870 128 0 0 0
-744 -1159 -872 128 0 0 0
-749 -1155 -870 128 0 0 0
-753 -1149 -867 128 0 0 0
-758 -1145 -866 128 0 0 0
0 0 0 0 0 0 0
-764 -1130 -858 128 0 0 0
-767 -1124 -854 128 0 0 0
-728 -1055 -804 128 0 0 0
-144 -208 -159 128 0 0 0
0 0 0 0 0 0 0
-595 -838 -642 128 0 0 0
-802 -1118 -858 128 0 0 0
-809 -1116 -858 128 0 0 0
-817 -1117 -859 128 0 0 0
-203 -275 -213 128 0 0 0
-205 -276 -214 128 0 0 0
-844 -1122 -868 128 0 0 0
349 -1338 -780 0 0 0 0
343 -1336 -780 0 1 0 0
338 -1335 -780 21 0 0 0
332 -1335 -781 108 7 11 0
328 -1339 -784 134 0 3 0
321 -1334 -782 127 0 0 0
315 -1331 -782 130 0 0 0
310 -1329 -782 129 0 0 0
304 -1329 -782 129 0 0 0
300 -1333 -786 128 0 0 0
295 -1338 -790 128 0 0 0
290 -1336 -790 128 0 0 0
285 -1338 -792 128 0 0 0
278 -1335 -791 128 0 0 0
273 -1337 -794 128 0 0 0
268 -1337 -795 128 0 0 0
262 -1335 -795 128 0 0 0
256 -1333 -795 128 0 0 0
250 -1332 -795 128 0 0 0
245 -1333 -797 128 0 0 0
240 -1338 -801 128 0 0 0
234 -1337 -801 128 0 0 0
230 -1342 -805 128 0 0 0
224 -1342 -806 128 0 0 0
219 -1346 -810 128 0 0 0
213 -1344 -810 128 0 0 0
208 -1347 -813 128 0 0 0
202 -1347 -814 128 0 0 0
196 -1347 -815 128 0 0 0
84 -587 -356 128 0 0 0
160 -1163 -706 128 0 0 0
190 -1435 -872 128 0 1 0
184 -1432 -871 128 0 1 0
178 -1433 -873 131 3 4 0
171 -1431 -873 128 0 1 0
165 -1429 -873 127 0 0 0
158 -1430 -875 127 0 0 0
152 -1432 -878 128 0 0 0
146 -1434 -880 128 0 0 0
141 -1441 -885 127 0 0 0
134 -1441 -887 128 0 0 0
128 -1441 -888 127 0 0 0
122 -1444 -891 129 1 2 0
115 -1444 -892 128 0 0 0
109 -1447 -895 128 0 0 0
103 -1457 -903 125 0 0 0
96 -1449 -899 125 0 0 0
90 -1452 -902 125 0 0 0
83 -1447 -900 127 1 2 0
98 -1868 -1164 128 1 8 0
96 -1995 -1245 122 0 4 0
71 -1622 -1014 127 2 6 0
-1232 -1054 -900 151 120 118 0
41 -1180 -740 124 0 18 0
47 -1574 -988 124 0 33 0
40 -1580 -993 126 0 55 0
33 -1576 -992 140 4 86 0
25 -1572 -991 134 3 96 0
19 -1644 -1038 132 3 104 0
13 -2020 -1277 132 1 115 0
4 -2021 -1279 130 0 124 0
-5 -2025 -1284 130 0 129 0
-15 -2038 -1294 129 0 131 0
-24 -2044 -1300 129 0 127 0
-34 -2025 -1289 127 1 124 0
-43 -2026 -1292 127 2 122 0
-53 -2023 -1292 127 1 124 0
-62 -2019 -1291 127 1 127 0
-72 -2023 -1296 129 0 129 0
-82 -2030 -1302 129 0 133 0
-92 -2031 -1305 130 0 133 0
-102 -2040 -1312 130 0 129 0
-112 -2036 -1312 130 0 127 0
-121 -2022 -1304 129 0 127 0
-130 -2014 -1301 129 0 127 0
-140 -2016 -1304 129 0 127 0
-150 -2015 -1306 129 0 127 0
-160 -2023 -1313 129 0 127 0
-170 -2015 -1309 129 0 127 0
-180 -2015 -1311 129 0 127 0
-190 -2015 -1313 129 0 127 0
-199 -2008 -1311 129 0 127 0
-207 -1992 -1303 129 0 127 0
-217 -1994 -1305 129 0 127 0
-227 -1991 -1305 129 0 127 0
-236 -1982 -1302 129 0 127 0
-247 -1991 -1309 129 0 127 0
-257 -1990 -1311 129 0 127 0
-267 -1987 -1311 130 0 127 0
-275 -1974 -1304 132 0 129 0
-285 -1970 -1304 130 0 129 0
-294 -1965 -1302 129 0 127 0
-304 -1966 -1305 129 0 127 0
-314 -1965 -1306 130 0 131 0
-322 -1954 -1301 132 0 131 0
-330 -1937 -1291 130 0 129 0
-336 -1917 -1280 130 0 127 0
-350 -1938 -1296 130 0 127 0
-359 -1933 -1295 129 0 126 0
-370 -1937 -1299 130 0 126 0
-380 -1937 -1301 129 1 124 0
-389 -1929 -1298 127 2 122 0
-397 -1921 -1295 127 1 124 0
-406 -1914 -1292 126 2 126 0
-415 -1909 -1290 127 1 127 0
-426 -1912 -1295 130 0 131 0
-433 -1899 -1287 132 0 131 0
-443 -1898 -1289 130 0 131 0
-455 -1905 -1296 126 1 127 0
-464 -1899 -1293 119 6 120 0
-476 -1906 -1301 112 11 115 0
-485 -1901 -1299 105 15 111 0
-492 -1886 -1291 77 31 106 0
-503 -1888 -1294 61 92 136 0
-503 -1851 -1270 30 115 136 0
-488 -1761 -1211 4 123 129 0
-492 -1741 -1199 0 128 129 0
-498 -1727 -1191 3 132 137 0
-503 -1711 -1182 0 127 133 0
-510 -1702 -1178 1 126 128 0
-522 -1710 -1185 1 127 126 0
-130 -425 -295 3 127 127 0
-144 -461 -321 3 127 127 0
-599 -1860 -1295 2 127 129 0
-111 -344 -241 0 128 129 0
-432 -1297 -906 0 128 129 0
-584 -1722 -1205 2 127 129 0
-591 -1716 -1203 3 127 129 0
-600 -1713 -1203 3 127 129 0
-610 -1711 -1203 3 127 129 0
-618 -1708 -1203 2 127 129 0
-625 -1699 -1199 0 129 131 0
-631 -1689 -1193 0 129 131 0
-638 -1681 -1189 0 130 131 0
-645 -1675 -1187 0 130 131 0
-652 -1668 -1184 0 130 129 0
-656 -1653 -1176 9 125 125 0
-658 -1633 -1163 32 116 118 0
-662 -1618 -1154 0 15 16 0
-669 -1613 -1153 0 7 1 0
-679 -1613 -1154 1 0 0 0
-688 -1611 -1155 0 1 0 0
-693 -1602 -1151 0 1 0 0
-697 -1588 -1142 0 1 0 0
-560 -1259 -907 1 2 0 0
-695 -1541 -1112 0 0 2 0
-704 -1541 -1114 7 0 2 0
-714 -1542 -1116 27 0 0 0
-725 -1545 -1120 87 18 21 0
-733 -1542 -1120 110 5 2 0
-746 -1548 -1126 124 0 0 0
-760 -1559 -1136 126 3 0 0
-729 -1475 -1077 124 1 0 0
0 0 0 0 0 0 0
-286 -567 -416 123 1 0 0
-663 -1293 -949 125 1 1 0
-670 -1291 -949 125 1 1 0
-674 -1283 -945 124 0 0 0
-674 -1268 -935 127 3 1 0
-678 -1260 -931 125 0 0 0
-681 -1251 -926 126 1 0 0
-685 -1243 -921 128 0 1 0
-686 -1231 -914 129 0 0 0
-690 -1224 -910 129 0 0 0
-684 -1200 -894 129 0 0 0
-679 -1178 -879 129 0 0 0
-681 -1167 -873 128 0 0 0
-685 -1162 -870 126 1 0 0
-690 -1158 -869 126 1 0 0
-696 -1155 -868 128 0 0 0
-704 -1155 -869 128 0 0 0
-709 -1151 -868 128 0 0 0
-717 -1152 -870 128 0 0 0
-723 -1150 -870 128 0 0 0
-730 -1148 -870 128 0 0 0
-737 -1146 -870 128 0 0 0
-742 -1142 -869 128 0 0 0
-748 -1140 -868 128 0 0 0
-753 -1135 -867 128 0 0 0
-757 -1130 -864 128 0 0 0
0 0 0 0 0 0 0
0 0 0 0 0 0 0
0 0 0 0 0 0 0
0 0 0 0 0 0 0
0 0 0 0 0 0 0
0 0 0 0 0 0 0
-795 -1107 -857 128 0 0 0
-802 -1106 -858 128 0 0 0
-810 -1106 -859 128 0 0 0
-819 -1108 -862 128 0 0 0
-830 -1112 -866 128 0 0 0
-837 -1111 -868 128 0 0 0
350 -1336 -785 0 0 0 0
344 -1335 -786 0 2 1 0
339 -1335 -787 22 0 0 0
334 -1335 -788 108 3 8 0
329 -1338 -791 134 0 2 0
323 -1334 -790 127 0 0 0
317 -1332 -789 128 0 0 0
311 -1332 -790 128 0 0 0
307 -1334 -792 127 0 0 0
302 -1338 -796 129 0 0 0
296 -1337 -796 128 0 0 0
291 -1339 -799 128 0 0 0
286 -1338 -799 128 0 0 0
280 -1339 -801 128 0 0 0
274 -1337 -801 128 0 0 0
269 -1335 -801 128 0 0 0
263 -1334 -801 128 0 0 0
258 -1337 -804 128 0 0 0
252 -1336 -804 128 0 0 0
246 -1333 -804 128 0 0 0
241 -1335 -806 128 0 0 0
235 -1335 -807 128 0 0 0
230 -1339 -811 128 0 0 0
225 -1342 -814 128 0 0 0
220 -1346 -817 128 0 0 0
214 -1346 -818 128 0 0 0
210 -1352 -823 128 0 0 0
166 -1102 -672 128 0 0 0
150 -1022 -624 128 0 0 0
200 -1406 -860 128 0 0 0
197 -1429 -875 128 0 0 0
190 -1425 -874 128 0 1 0
184 -1424 -874 128 0 1 0
177 -1422 -874 127 0 0 0
172 -1425 -878 127 0 0 0
165 -1424 -878 128 0 0 0
160 -1431 -883 128 0 0 0
154 -1432 -885 129 1 0 0
148 -1435 -888 129 1 0 0
142 -1439 -892 129 1 0 0
135 -1440 -894 129 1 0 0
129 -1443 -897 129 1 0 0
123 -1441 -897 127 0 0 0
116 -1443 -900 129 1 0 0
111 -1453 -907 129 1 0 0
105 -1460 -913 125 0 0 0
98 -1457 -912 125 0 0 0
98 -1565 -981 127 2 10 0
117 -2032 -1276 124 0 12 0
107 -2008 -1262 124 0 20 0
97 -1997 -1257 124 0 26 0
88 -1997 -1259 124 0 31 0
17 -374 -236 118 0 32 0
-1241 -1052 -909 136 124 126 0
39 -1275 -808 136 6 78 0
44 -1687 -1070 136 2 97 0
43 -2034 -1292 133 0 109 0
33 -2023 -1286 132 1 117 0
24 -2024 -1289 129 1 122 0
14 -2019 -1288 129 1 124 0
5 -2025 -1293 129 0 127 0
-4 -2025 -1295 129 0 129 0
-13 -2022 -1295 129 0 131 0
-23 -2023 -1298 129 0 129 0
-32 -2018 -1297 129 0 127 0
-42 -2015 -1297 130 0 126 0
-51 -2007 -1293 129 0 126 0
-61 -2013 -1299 130 0 127 0
-70 -2008 -1298 130 0 129 0
-80 -2005 -1298 130 0 133 0
-89 -1997 -1294 130 0 131 0
-99 -2005 -1301 130 0 129 0
-110 -2014 -1309 130 0 127 0
-119 -2011 -1309 129 0 127 0
-129 -2006 -1308 129 0 127 0
-138 -1999 -1305 129 0 127 0
-147 -1992 -1303 129 0 127 0
-158 -1999 -1309 129 0 127 0
-167 -1989 -1304 129 0 127 0
-178 -2005 -1317 129 0 127 0
-188 -2005 -1319 129 0 127 0
-197 -2002 -1318 129 0 127 0
-205 -1982 -1308 129 0 127 0
-215 -1976 -1305 129 0 127 0
-224 -1971 -1304 129 0 127 0
-234 -1968 -1304 129 0 127 0
-244 -1974 -1310 129 0 127 0
-254 -1972 -1311 129 0 127 0
-264 -1969 -1311 130 0 127 0
-273 -1962 -1308 133 0 129 0
-281 -1949 -1301 132 0 129 0
-290 -1940 -1298 127 0 129 0
-300 -1943 -1302 127 0 129 0
-309 -1939 -1300 130 0 129 0
-318 -1928 -1295 132 0 129 0
-325 -1911 -1286 132 0 127 0
-334 -1905 -1283 132 0 126 0
-343 -1904 -1285 130 0 127 0
-354 -1907 -1289 129 0 127 0
-367 -1924 -1302 129 0 127 0
-377 -1921 -1302 127 1 126 0
-385 -1912 -1298 127 1 126 0
-394 -1907 -1297 127 1 126 0
-403 -1903 -1296 127 1 126 0
-413 -1901 -1296 129 0 127 0
-421 -1893 -1293 132 0 129 0
-430 -1886 -1290 132 0 131 0
-439 -1879 -1288 129 0 131 0
-448 -1876 -1287 127 0 131 0
-461 -1889 -1299 125 2 127 0
-470 -1883 -1296 125 2 126 0
-479 -1876 -1294 129 1 124 0
-487 -1869 -1291 105 14 119 0
-499 -1873 -1296 53 44 111 0
-501 -1843 -1277 47 105 142 0
-490 -1769 -1228 13 121 133 0
-493 -1743 -1211 1 133 135 0
-497 -1725 -1200 0 124 127 0
-502 -1710 -1193 0 125 128 0
-508 -1698 -1186 4 129 133 0
-520 -1705 -1193 2 127 129 0
-531 -1709 -1197 3 127 129 0
-441 -1396 -980 3 127 127 0
-136 -426 -300 2 127 129 0
-563 -1717 -1209 0 128 129 0
-568 -1704 -1201 2 127 129 0
-580 -1710 -1207 2 127 129 0
-586 -1699 -1202 3 127 129 0
-596 -1701 -1205 3 127 129 0
-602 -1691 -1200 0 128 129 0
-610 -1684 -1197 0 129 129 0
-619 -1682 -1197 0 129 131 0
-627 -1678 -1196 0 129 131 0
-637 -1679 -1199 0 129 131 0
-644 -1671 -1195 0 130 131 0
-651 -1663 -1191 0 130 129 0
-655 -1650 -1184 2 128 127 0
-659 -1635 -1175 13 121 123 0
-662 -1620 -1166 33 115 113 0
-668 -1610 -1161 0 15 9 0
-678 -1611 -1164 0 10 2 0
-685 -1603 -1160 0 9 5 0
-687 -1586 -1149 0 6 2 0
-682 -1554 -1128 0 6 0 0
-681 -1530 -1112 0 1 0 0
-691 -1531 -1115 0 1 3 0
-703 -1536 -1121 3 0 2 0
-714 -1542 -1126 13 0 0 0
-727 -1548 -1133 29 0 0 0
-737 -1548 -1135 96 15 12 0
-747 -1550 -1138 115 10 6 0
-755 -1547 -1138 116 1 0 0
-773 -1564 -1152 126 4 1 0
-786 -1571 -1159 125 0 0 0
-146 -290 -215 125 0 0 0
0 0 0 0 0 0 0
-667 -1285 -953 128 4 2 0
-672 -1279 -951 129 4 2 0
-673 -1264 -941 124 0 0 0
-678 -1259 -939 126 1 0 0
-683 -1253 -936 126 1 0 0
-685 -1242 -929 128 0 0 0
-687 -1231 -923 129 0 0 0
-691 -1226 -920 131 0 0 0
-694 -1217 -915 131 0 0 0
-691 -1197 -902 129 0 0 0
-682 -1168 -882 128 0 0 0
-684 -1158 -875 126 1 0 0
-684 -1147 -868 126 1 0 0
-691 -1145 -868 128 0 0 0
-696 -1141 -867 128 0 0 0
-703 -1140 -868 128 0 0 0
-710 -1139 -869 128 0 0 0
-718 -1139 -870 128 0 0 0
-724 -1138 -870 128 0 0 0
-732 -1137 -872 128 0 0 0
-738 -1134 -871 128 0 0 0
-744 -1132 -871 128 0 0 0
-749 -1128 -869 128 0 0 0
-753 -1123 -866 128 0 0 0
-186 -276 -214 128 0 0 0
0 0 0 0 0 0 0
0 0 0 0 0 0 0
0 0 0 0 0 0 0
0 0 0 0 0 0 0
-143 -201 -158 128 0 0 0
-790 -1099 -859 128 0 0 0
-800 -1102 -862 128 0 0 0
-808 -1102 -864 128 0 0 0
-818 -1105 -868 128 0 0 0
-825 -1104 -869 128 0 0 0
-834 -1105 -871 128 0 0 0
351 -1336 -792 0 1 0 0
346 -1337 -794 0 1 0 0
341 -1336 -794 25 0 0 0
335 -1337 -796 112 5 11 0
331 -1342 -800 136 0 4 0
325 -1338 -799 127 0 0 0
319 -1335 -798 125 0 0 0
314 -1339 -801 130 0 2 0
308 -1335 -800 132 2 4 0
303 -1337 -803 129 0 0 0
297 -1335 -802 128 0 0 0
292 -1337 -805 128 0 0 0
286 -1336 -805 128 0 0 0
281 -1336 -806 128 0 0 0
275 -1334 -806 128 0 0 0
269 -1333 -806 128 0 0 0
264 -1334 -808 128 0 0 0
259 -1337 -811 128 0 0 0
253 -1333 -810 128 0 0 0
247 -1332 -810 128 0 0 0
242 -1334 -813 128 0 0 0
237 -1337 -816 128 0 0 0
189 -1089 -665 128 0 0 0
58 -331 -203 128 0 0 0
98 -587 -360 128 0 0 0
217 -1356 -832 128 0 0 0
213 -1368 -841 128 0 0 0
170 -1116 -687 128 0 0 0
-1009 -1037 -862 128 0 0 0
200 -1400 -863 128 0 0 0
197 -1424 -880 128 0 0 0
191 -1422 -880 128 0 0 0
185 -1422 -881 128 0 0 0
179 -1425 -884 127 0 0 0
173 -1426 -885 128 0 0 0
167 -1428 -888 129 1 2 0
161 -1433 -892 128 0 1 0
155 -1432 -893 128 0 1 0
149 -1437 -897 128 0 1 0
143 -1439 -900 128 0 1 0
137 -1442 -903 127 0 0 0
130 -1441 -904 128 0 0 0
124 -1439 -904 129 0 0 0
52 -628 -395 127 0 0 0
30 -361 -228 124 0 0 0
139 -1928 -1216 130 5 1 0
132 -1963 -1240 126 1 9 0
129 -2058 -1302 123 0 26 0
119 -2038 -1291 122 0 40 0
108 -2014 -1277 116 0 38 0
99 -2000 -1270 125 0 58 0
89 -1995 -1269 136 7 90 0
80 -2002 -1275 134 4 102 0
54 -1495 -954 132 3 104 0
62 -2006 -1282 134 4 110 0
53 -2015 -1289 131 0 112 0
44 -2017 -1292 129 0 118 0
34 -2019 -1295 129 1 122 0
25 -2019 -1297 127 1 126 0
16 -2031 -1307 127 1 126 0
6 -2029 -1307 127 1 126 0
-3 -2021 -1304 129 0 127 0
-12 -2012 -1301 129 0 129 0
-22 -2022 -1308 130 0 129 0
-31 -2021 -1310 130 0 129 0
-41 -2018 -1310 132 0 129 0
-50 -2005 -1303 130 0 129 0
-60 -2007 -1307 132 0 127 0
-69 -1993 -1299 130 0 127 0
-78 -1987 -1297 130 0 127 0
-88 -1984 -1297 130 0 126 0
-97 -1983 -1299 130 0 126 0
-107 -1988 -1304 130 0 126 0
-117 -1994 -1310 129 0 127 0
-126 -1980 -1302 129 0 127 0
-135 -1972 -1299 129 0 127 0
-144 -1965 -1296 129 0 127 0
-154 -1964 -1298 129 0 127 0
-164 -1968 -1302 129 0 127 0
-174 -1975 -1308 129 0 127 0
-184 -1971 -1308 129 0 127 0
-193 -1962 -1304 129 0 127 0
-202 -1955 -1302 129 0 127 0
-212 -1957 -1304 129 0 127 0
-221 -1952 -1303 129 0 127 0
-230 -1946 -1301 129 0 127 0
-240 -1943 -1301 129 0 127 0
-249 -1941 -1302 129 0 127 0
-259 -1943 -1305 130 0 127 0
-269 -1940 -1305 132 0 129 0
-278 -1934 -1303 132 0 129 0
-286 -1924 -1298 127 1 127 0
-296 -1919 -1297 126 2 126 0
-305 -1916 -1297 126 2 126 0
-315 -1914 -1297 129 0 126 0
-324 -1911 -1298 132 0 126 0
-333 -1906 -1296 132 0 126 0
-343 -1906 -1298 130 0 127 0
-353 -1903 -1298 129 0 127 0
-363 -1904 -1300 126 1 127 0
-372 -1900 -1300 125 2 127 0
-381 -1894 -1298 126 1 127 0
-391 -1893 -1299 127 1 127 0
-400 -1891 -1299 130 0 129 0
-410 -1886 -1298 132 0 127 0
-418 -1877 -1294 129 0 126 0
-427 -1872 -1292 129 0 126 0
-437 -1871 -1294 129 0 127 0
-448 -1875 -1299 129 0 127 0
-458 -1875 -1301 127 1 127 0
-466 -1868 -1298 126 2 126 0
-476 -1865 -1298 127 1 126 0
-486 -1866 -1300 112 10 122 0
-495 -1860 -1299 81 25 112 0
-499 -1836 -1284 77 86 143 0
-492 -1777 -1244 25 113 135 0
-494 -1749 -1226 0 127 130 0
-496 -1722 -1209 0 126 125 0
-501 -1707 -1201 5 131 130 0
-507 -1695 -1195 1 129 132 0
-518 -1700 -1200 0 127 133 0
-527 -1698 -1200 0 128 129 0
-538 -1703 -1205 0 128 129 0
-548 -1704 -1208 0 129 129 0
-558 -1702 -1209 0 129 129 0
-564 -1693 -1204 0 128 129 0
-572 -1686 -1201 0 128 129 0
-579 -1678 -1197 2 127 129 0
-588 -1677 -1199 0 128 129 0
-597 -1676 -1200 0 130 129 0
-607 -1675 -1201 0 130 129 0
-616 -1674 -1203 0 130 129 0
-624 -1670 -1201 0 130 129 0
-633 -1666 -1201 0 128 131 0
-641 -1664 -1201 2 127 131 0
-650 -1659 -1200 2 127 131 0
-654 -1646 -1192 3 127 129 0
-660 -1636 -1187 6 125 129 0
-662 -1618 -1176 12 126 126 0
-665 -1602 -1166 18 125 119 0
-672 -1594 -1162 23 118 112 0
-675 -1581 -1154 35 113 113 0
-674 -1555 -1137 0 17 18 0
-672 -1530 -1121 0 6 7 0
-679 -1523 -1118 0 1 2 0
-690 -1528 -1123 0 1 2 0
-700 -1529 -1126 0 1 0 0
-713 -1537 -1133 1 0 0 0
-728 -1549 -1144 13 0 0 0
-737 -1548 -1145 31 0 0 0
-746 -1547 -1147 83 13 11 0
-752 -1539 -1142 112 4 4 0
-761 -1538 -1143 126 0 1 0
-775 -1547 -1153 129 0 1 0
-787 -1552 -1158 132 2 2 0
-591 -1151 -860 127 0 0 0
0 0 0 0 0 0 0
-670 -1273 -954 128 0 0 0
-672 -1261 -948 131 2 0 0
-678 -1258 -947 128 0 0 0
-681 -1249 -942 129 2 0 0
-684 -1240 -936 129 0 0 0
-686 -1229 -929 129 0 0 0
-692 -1225 -928 131 0 0 0
-694 -1216 -923 131 0 0 0
-700 -1212 -921 129 0 0 0
-694 -1188 -905 128 0 0 0
-687 -1162 -887 126 1 0 0
-683 -1144 -874 126 1 0 0
-688 -1138 -871 128 0 0 0
-693 -1136 -871 128 0 0 0
-698 -1131 -869 128 0 0 0
-705 -1130 -870 128 0 0 0
-713 -1130 -871 128 0 0 0
-719 -1128 -871 128 0 0 0
-726 -1127 -872 128 0 0 0
-732 -1125 -871 128 0 0 0
-739 -1124 -873 128 0 0 0
-746 -1123 -873 128 0 0 0
-753 -1121 -873 128 0 0 0
-753 -1110 -866 128 0 0 0
-566 -826 -646 128 0 0 0
-427 -617 -484 128 0 0 0
0 0 0 0 0 0 0
-142 -202 -159 128 0 0 0
-777 -1090 -858 128 0 0 0
-787 -1093 -862 128 0 0 0
-797 -1096 -866 128 0 0 0
-806 -1098 -869 128 0 0 0
-813 -1096 -869 128 0 0 0
-819 -1094 -869 128 0 0 0
-828 -1096 -872 128 0 0 0
353 -1338 -800 0 1 0 0
347 -1336 -800 0 0 0 0
343 -1340 -804 24 0 0 0
338 -1343 -806 106 5 9 0
334 -1346 -809 127 0 1 0
327 -1340 -807 127 1 2 0
321 -1340 -808 127 3 1 0
316 -1341 -810 129 0 1 0
311 -1341 -811 128 0 0 0
305 -1341 -812 128 0 0 0
300 -1341 -813 128 0 0 0
294 -1339 -813 128 0 0 0
289 -1340 -814 128 0 0 0
283 -1338 -814 128 0 0 0
276 -1333 -813 128 0 0 0
271 -1333 -814 128 0 0 0
266 -1338 -818 128 0 0 0
260 -1338 -819 128 0 0 0
254 -1335 -818 128 0 0 0
247 -1326 -814 128 0 0 0
-959 -1052 -870 128 0 0 0
-965 -1049 -869 128 0 0 0
-968 -1044 -866 128 0 0 0
-975 -1042 -867 128 0 0 0
-981 -1040 -866 128 0 0 0
168 -1042 -645 128 0 0 0
216 -1381 -856 128 0 0 0
210 -1377 -854 128 0 0 0
203 -1370 -852 128 0 0 0
199 -1381 -860 128 0 0 0
197 -1414 -881 128 0 0 0
192 -1419 -885 128 0 0 0
185 -1419 -886 128 0 0 0
180 -1424 -891 128 0 0 0
174 -1430 -896 129 1 0 0
168 -1432 -898 128 0 1 0
162 -1432 -900 127 0 0 0
156 -1431 -900 127 0 0 0
149 -1432 -902 128 0 1 0
144 -1438 -908 128 0 3 0
137 -1439 -909 128 0 1 0
131 -1442 -912 129 1 0 0
178 -2071 -1312 126 0 0 0
168 -2065 -1310 131 4 13 0
160 -2073 -1317 125 0 15 0
150 -2067 -1315 123 0 22 0
141 -2065 -1316 121 0 35 0
131 -2058 -1313 136 6 70 0
121 -2050 -1310 135 7 84 0
110 -2020 -1292 136 7 87 0
100 -2005 -1285 130 1 93 0
90 -1993 -1279 131 0 114 0
81 -1992 -1280 130 0 124 0
72 -1990 -1280 128 0 125 0
63 -1999 -1288 126 0 125 0
54 -2014 -1300 128 0 123 0
45 -2018 -1304 132 6 129 0
35 -2017 -1306 127 1 127 0
26 -2020 -1310 126 1 129 0
17 -2016 -1309 127 1 127 0
7 -2021 -1314 127 1 127 0
-1 -2013 -1311 129 0 127 0
-11 -2003 -1306 129 0 127 0
-20 -2005 -1309 130 0 129 0
-30 -2009 -1314 132 0 129 0
-39 -2006 -1314 132 0 131 0
-49 -2000 -1312 132 0 129 0
-58 -1992 -1308 132 0 127 0
-67 -1983 -1304 130 0 126 0
-77 -1978 -1303 130 0 126 0
-86 -1967 -1298 130 0 124 0
-95 -1965 -1298 130 0 126 0
-105 -1969 -1303 130 0 126 0
-115 -1976 -1310 129 0 127 0
-125 -1974 -1310 129 0 127 0
-134 -1967 -1307 129 0 127 0
-142 -1951 -1299 129 0 127 0
-152 -1949 -1299 129 0 127 0
-162 -1956 -1306 129 0 127 0
-171 -1953 -1306 129 0 127 0
-180 -1945 -1302 129 0 127 0
-190 -1942 -1302 129 0 127 0
-199 -1934 -1299 129 0 127 0
-208 -1932 -1299 129 0 127 0
-218 -1931 -1301 129 0 127 0
-227 -1925 -1299 129 0 127 0
-236 -1921 -1298 129 0 127 0
-246 -1921 -1300 129 0 127 0
-256 -1922 -1303 130 0 127 0
-265 -1918 -1302 132 0 127 0
-275 -1916 -1303 130 0 127 0
-283 -1907 -1298 127 1 126 0
-292 -1900 -1296 126 2 126 0
-301 -1893 -1293 126 2 126 0
-311 -1893 -1295 127 1 126 0
-321 -1894 -1297 130 0 126 0
-330 -1892 -1298 132 0 126 0
-340 -1893 -1300 130 0 127 0
-351 -1897 -1305 129 0 127 0
-360 -1893 -1304 126 1 129 0
-368 -1881 -1298 125 2 129 0
-377 -1878 -1298 125 2 127 0
-386 -1871 -1296 127 1 127 0
-395 -1866 -1294 132 0 129 0
-403 -1860 -1292 132 0 127 0
-412 -1854 -1289 127 1 124 0
-422 -1852 -1291 126 2 122 0
-431 -1849 -1290 129 0 127 0
-442 -1854 -1296 130 0 127 0
-452 -1854 -1297 129 0 126 0
-460 -1846 -1294 127 1 124 0
-471 -1849 -1298 126 2 126 0
-481 -1848 -1300 119 6 124 0
-490 -1842 -1297 106 15 120 0
-494 -1819 -1283 67 30 108 0
-493 -1780 -1258 53 102 143 0
-493 -1747 -1236 18 120 135 0
-496 -1721 -1220 6 126 127 0
-501 -1705 -1210 1 130 126 0
-506 -1690 -1202 1 126 128 0
-514 -1686 -1201 1 126 130 0
-524 -1686 -1203 0 128 129 0
-536 -1694 -1210 0 129 129 0
-545 -1692 -1211 0 130 129 0
-552 -1684 -1207 0 130 129 0
-560 -1680 -1206 0 129 129 0
-568 -1675 -1204 0 128 129 0
-575 -1669 -1202 0 128 129 0
-585 -1668 -1204 0 128 129 0
-593 -1663 -1201 0 130 129 0
-603 -1664 -1204 0 130 129 0
-612 -1663 -1205 0 130 129 0
-620 -1658 -1204 0 129 129 0
-631 -1661 -1208 2 127 131 0
-640 -1659 -1209 3 126 131 0
-646 -1650 -1204 3 126 131 0
-653 -1642 -1200 2 127 131 0
-657 -1629 -1193 1 129 130 0
-658 -1608 -1179 0 129 129 0
-653 -1571 -1154 0 126 123 0
-649 -1540 -1133 3 129 126 0
-653 -1529 -1126 14 124 125 0
-661 -1525 -1126 37 115 117 0
-667 -1517 -1121 0 8 11 0
-678 -1521 -1126 2 3 7 0
-686 -1518 -1126 0 0 4 0
-694 -1516 -1126 3 4 6 0
-702 -1513 -1126 0 1 0 0
-720 -1531 -1141 3 0 0 0
-732 -1537 -1147 13 0 0 0
-740 -1533 -1146 30 0 0 0
-747 -1529 -1145 98 20 20 0
-756 -1526 -1145 109 6 9 0
-760 -1516 -1139 115 5 6 0
-772 -1521 -1145 123 5 5 0
-781 -1518 -1145 122 0 0 0
-145 -280 -212 129 1 2 0
0 0 0 0 0 0 0
-543 -1019 -773 133 1 0 0
-674 -1250 -950 126 0 0 0
-680 -1246 -948 129 2 0 0
-684 -1239 -944 128 1 0 0
-686 -1227 -937 128 1 0 0
-690 -1221 -934 129 0 0 0
-695 -1216 -931 129 0 0 0
-699 -1208 -927 129 0 0 0
-701 -1199 -922 129 0 0 0
-700 -1184 -911 128 0 1 0
-699 -1168 -901 128 0 1 0
-695 -1149 -888 128 0 0 0
-696 -1138 -881 128 0 0 0
-699 -1130 -876 128 0 0 0
-701 -1122 -871 128 0 0 0
-708 -1121 -872 128 0 0 0
-714 -1119 -872 128 0 0 0
-719 -1114 -870 128 0 0 0
-725 -1112 -869 128 0 0 0
-731 -1110 -869 128 0 0 0
-738 -1109 -871 128 0 0 0
-745 -1108 -871 128 0 0 0
-749 -1103 -869 128 0 0 0
-754 -1099 -867 128 0 0 0
-759 -1095 -865 128 0 0 0
-763 -1089 -863 128 0 0 0
-769 -1087 -863 128 0 0 0
-778 -1089 -865 128 0 0 0
-785 -1089 -867 128 0 0 0
-791 -1087 -867 128 0 0 0
-800 -1088 -869 128 0 0 0
-807 -1087 -870 128 0 0 0
-810 -1080 -866 128 0 0 0
205 -757 -456 0 0 2 0
356 -1345 -811 0 0 2 0
351 -1346 -813 1 0 0 0
346 -1348 -815 23 0 0 0
342 -1351 -818 103 14 16 0
336 -1350 -819 120 2 2 0
84 -334 -203 124 2 1 0
328 -1362 -828 125 0 0 0
329 -1391 -847 126 0 0 0
323 -1388 -847 130 0 2 0
317 -1385 -846 128 0 0 0
312 -1392 -851 128 0 0 0
301 -1367 -837 128 0 0 0
292 -1352 -829 128 0 0 0
286 -1346 -826 128 0 0 0
280 -1344 -826 128 0 0 0
275 -1350 -831 128 0 0 0
268 -1343 -828 128 0 0 0
262 -1340 -828 128 0 0 0
256 -1340 -829 128 0 0 0
64 -333 -206 128 0 0 0
-953 -1044 -871 128 0 0 0
-959 -1041 -870 128 0 0 0
-965 -1038 -870 128 0 0 0
-969 -1034 -868 128 0 0 0
-973 -1030 -866 128 0 0 0
-976 -1024 -863 128 0 0 0
56 -341 -214 128 0 1 0
171 -1113 -697 128 0 0 0
203 -1365 -856 128 0 0 0
52 -343 -216 128 0 0 0
88 -616 -387 128 0 0 0
192 -1417 -892 128 0 0 0
187 -1420 -895 128 0 0 0
181 -1428 -901 128 0 0 0
176 -1435 -907 128 0 0 0
170 -1437 -909 128 0 1 0
164 -1435 -910 127 0 0 0
157 -1436 -912 128 0 3 0
150 -1431 -909 129 0 4 0
145 -1437 -914 129 0 5 0
138 -1435 -915 126 0 3 0
185 -2032 -1297 126 1 0 0
179 -2067 -1321 125 0 8 0
169 -2059 -1318 124 0 33 0
160 -2054 -1316 121 0 55 0
150 -2044 -1312 138 4 91 0
141 -2047 -1316 134 2 103 0
132 -2058 -1324 135 2 109 0
122 -2047 -1319 133 3 112 0
112 -2028 -1309 134 3 119 0
101 -2006 -1297 129 0 119 0
92 -1992 -1289 128 0 119 0
82 -1990 -1290 127 2 122 0
73 -1986 -1289 129 3 126 0
64 -1996 -1298 129 5 129 0
56 -2019 -1315 126 0 126 0
46 -2017 -1315 124 0 126 0
37 -2013 -1315 127 0 133 0
27 -2015 -1317 127 0 133 0
18 -2013 -1319 129 0 131 0
8 -1998 -1311 129 0 129 0
0 -1994 -1309 129 0 126 0
-10 -1990 -1309 129 0 126 0
-19 -1991 -1312 130 0 126 0
-29 -1994 -1316 130 0 127 0
-38 -1991 -1315 130 0 129 0
-47 -1982 -1311 130 0 129 0
-57 -1976 -1309 130 0 127 0
-66 -1971 -1308 130 0 126 0
-75 -1963 -1305 130 0 126 0
-84 -1954 -1301 129 0 126 0
