ply
                    format ascii 1.0
                    element vertex 49077
                    property float x
                    property float y
                    property float z
                    property uchar red
                    property uchar green
                    property uchar blue
                    property uchar alpha
                    end_header
1.373566 5.036040 0.615323 130 112 93 0
1.383852 5.035270 0.619298 130 113 89 0
1.394016 5.034509 0.623225 124 107 86 0
1.404060 5.033757 0.627106 122 106 91 0
1.413987 5.033014 0.630941 129 106 92 0
1.423798 5.032280 0.634732 127 109 87 0
1.433495 5.031554 0.638479 134 118 95 0
1.443081 5.030837 0.642183 138 122 97 0
1.452557 5.030127 0.645844 146 127 113 0
1.461925 5.029426 0.649464 144 125 103 0
1.471187 5.028733 0.653043 145 125 101 0
1.480345 5.028047 0.656581 146 129 112 0
1.489400 5.027369 0.660080 146 129 103 0
1.498355 5.026699 0.663540 155 133 115 0
1.507211 5.026036 0.666962 152 139 113 0
1.515969 5.025381 0.670346 158 137 114 0
1.524631 5.024732 0.673693 156 140 118 0
1.533199 5.024091 0.677003 161 143 120 0
1.541674 5.023457 0.680278 162 144 123 0
1.550058 5.022829 0.683518 160 140 120 0
1.558352 5.022208 0.686722 165 148 117 0
1.566558 5.021594 0.689893 162 143 126 0
1.574677 5.020986 0.693030 164 142 121 0
1.582710 5.020385 0.696134 166 146 121 0
1.590659 5.019790 0.699205 163 144 130 0
1.598525 5.019201 0.702245 164 143 126 0
1.606309 5.018619 0.705252 170 144 125 0
1.614014 5.018042 0.708229 163 142 121 0
1.621639 5.017471 0.711175 166 145 123 0
1.629186 5.016906 0.714091 167 144 124 0
1.636656 5.016347 0.716978 161 141 119 0
1.644051 5.015793 0.719835 165 145 125 0
1.651371 5.015245 0.722664 166 147 122 0
1.658618 5.014703 0.725464 167 148 116 0
1.665793 5.014166 0.728236 168 147 122 0
1.672897 5.013634 0.730981 166 147 123 0
1.679930 5.013108 0.733699 165 145 123 0
1.686895 5.012587 0.736390 167 146 125 0
1.693791 5.012071 0.739054 156 140 117 0
1.700621 5.011559 0.741693 125 110 89 0
1.707384 5.011053 0.744307 91 79 65 0
1.714083 5.010551 0.746895 48 38 26 0
1.720717 5.010055 0.749458 24 21 11 0
1.727288 5.009563 0.751997 26 18 10 0
1.733796 5.009076 0.754512 24 18 10 0
1.740243 5.008594 0.757003 23 17 8 0
1.746629 5.008115 0.759470 20 18 10 0
1.752956 5.007642 0.761915 20 18 10 0
1.759224 5.007173 0.764337 20 18 10 0
1.765434 5.006708 0.766736 21 15 7 0
1.771586 5.006248 0.769113 23 16 4 0
1.919933 4.768177 0.900956 52 39 20 0
1.923616 4.769485 0.901859 90 75 54 0
1.924962 4.774734 0.900623 128 107 78 0
1.927059 4.778727 0.900071 166 136 100 0
1.928700 4.783522 0.899090 173 138 100 0
1.930533 4.788010 0.898280 168 138 104 0
1.930459 4.795885 0.895667 168 139 108 0
1.930775 4.803150 0.893396 173 144 104 0
1.931113 4.810447 0.891122 170 137 102 0
1.932790 4.815387 0.890107 172 137 105 0
1.932811 4.823391 0.887487 172 134 110 0
1.934988 4.827491 0.886928 167 134 111 0
1.935051 4.835553 0.884304 168 135 104 0
1.935639 4.842713 0.882165 163 135 106 0
1.936625 4.849183 0.880398 168 131 104 0
1.939105 4.852841 0.880094 152 121 89 0
1.946502 4.846962 0.884700 145 114 92 0
1.949786 4.848960 0.885233 133 104 73 0
1.953059 4.850951 0.885763 134 102 77 0
1.956322 4.852936 0.886292 136 106 78 0
1.959574 4.854914 0.886819 139 102 76 0
1.962816 4.856886 0.887345 142 105 79 0
1.966047 4.858851 0.887868 131 111 79 0
1.969267 4.860810 0.888390 140 103 77 0
1.972477 4.862762 0.888911 144 110 82 0
1.975677 4.864709 0.889429 147 111 90 0
1.978866 4.866649 0.889946 141 102 73 0
1.982045 4.868582 0.890461 151 113 90 0
1.985214 4.870510 0.890975 147 111 87 0
1.988373 4.872431 0.891487 148 112 88 0
1.991521 4.874346 0.891997 144 115 81 0
1.994660 4.876255 0.892506 150 119 86 0
1.997788 4.878158 0.893013 150 117 89 0
2.000906 4.880055 0.893519 149 119 84 0
2.004015 4.881946 0.894023 152 118 90 0
2.007113 4.883831 0.894525 160 117 85 0
1.401406 4.026719 0.952263 122 104 84 0
1.401635 4.030152 0.951209 130 109 79 0
1.401866 4.033601 0.950150 119 103 77 0
1.402098 4.037065 0.949087 125 99 77 0
1.402330 4.040543 0.948019 122 107 89 0
1.402564 4.044037 0.946946 118 109 78 0
1.402799 4.047547 0.945868 115 91 78 0
1.403034 4.051072 0.944786 112 94 79 0
1.403271 4.054613 0.943699 108 93 67 0
1.403509 4.058169 0.942607 110 91 63 0
1.403748 4.061742 0.941510 119 95 83 0
1.403988 4.065331 0.940408 120 102 88 0
1.404229 4.068935 0.939301 117 100 77 0
1.404471 4.072556 0.938190 123 108 87 0
1.404714 4.076192 0.937073 125 105 98 0
1.404959 4.079845 0.935951 122 104 84 0
1.405204 4.083515 0.934825 125 106 89 0
1.405451 4.087202 0.933693 124 111 93 0
1.405698 4.090905 0.932556 116 104 79 0
1.405947 4.094625 0.931414 124 108 81 0
1.406197 4.098361 0.930266 123 107 90 0
1.406448 4.102115 0.929114 122 106 80 0
1.406700 4.105886 0.927956 123 108 86 0
1.406954 4.109675 0.926793 121 105 81 0
1.407208 4.113481 0.925624 127 111 92 0
1.407464 4.117304 0.924450 122 106 89 0
1.407721 4.121145 0.923271 120 107 89 0
1.407979 4.125004 0.922086 123 108 92 0
1.408238 4.128881 0.920896 124 106 86 0
1.408498 4.132775 0.919700 124 104 82 0
1.408760 4.136688 0.918499 120 108 87 0
1.409023 4.140620 0.917292 120 107 91 0
1.409287 4.144569 0.916079 123 107 84 0
1.409553 4.148538 0.914861 124 105 88 0
1.409819 4.152524 0.913636 120 103 87 0
1.410087 4.156530 0.912407 118 103 91 0
1.410356 4.160555 0.911171 125 105 93 0
1.410627 4.164598 0.909929 124 106 85 0
1.410898 4.168661 0.908682 123 104 89 0
1.411171 4.172744 0.907428 122 106 84 0
1.411446 4.176846 0.906169 124 109 89 0
1.411721 4.180967 0.904904 122 106 92 0
1.411998 4.185108 0.903632 124 105 94 0
1.412277 4.189269 0.902354 120 108 85 0
1.412556 4.193450 0.901071 124 109 80 0
1.412837 4.197651 0.899781 122 108 86 0
1.413120 4.201873 0.898485 124 105 89 0
1.413403 4.206116 0.897182 115 108 92 0
1.413688 4.210378 0.895873 117 108 89 0
1.413975 4.214662 0.894558 114 102 86 0
1.414263 4.218966 0.893236 110 100 75 0
1.414552 4.223292 0.891908 105 90 72 0
1.414843 4.227639 0.890573 96 90 67 0
0.102194 4.592461 0.289025 106 92 81 0
0.108546 4.601101 0.288485 100 90 76 0
0.137948 4.603205 0.298553 95 87 65 0
0.186243 4.599653 0.317413 92 84 61 0
0.214189 4.601672 0.326976 92 81 69 0
0.233329 4.606109 0.332513 93 86 63 0
0.302030 4.595453 0.361199 97 83 60 0
0.392144 4.577643 0.400097 97 86 70 0
0.401431 4.584214 0.401319 98 86 70 0
0.421547 4.587327 0.407652 100 88 74 0
0.441581 4.590329 0.413992 107 100 82 0
1.399111 4.287819 0.864863 118 105 88 0
1.399326 4.292582 0.863362 123 115 96 0
1.399542 4.297369 0.861854 129 116 99 0
1.399760 4.302183 0.860338 125 110 94 0
1.399978 4.307022 0.858814 129 116 98 0
1.400198 4.311887 0.857282 132 119 100 0
1.400419 4.316778 0.855741 130 115 93 0
1.400641 4.321695 0.854192 132 113 91 0
1.400864 4.326638 0.852635 138 116 96 0
1.401089 4.331609 0.851070 124 113 93 0
1.401314 4.336606 0.849496 130 117 98 0
1.401541 4.341630 0.847913 127 114 100 0
1.401770 4.346682 0.846322 122 111 93 0
1.401999 4.351760 0.844722 120 109 91 0
1.402230 4.356867 0.843114 120 108 91 0
1.402462 4.362002 0.841496 118 110 91 0
1.402695 4.367165 0.839870 122 105 95 0
1.402930 4.372357 0.838235 118 107 89 0
1.403165 4.377577 0.836590 118 107 89 0
1.403402 4.382826 0.834937 122 106 91 0
1.403641 4.388104 0.833274 119 106 89 0
1.403881 4.393412 0.831603 117 109 90 0
1.404122 4.398750 0.829921 118 108 89 0
1.404364 4.404117 0.828231 121 105 90 0
1.404608 4.409514 0.826531 118 108 91 0
1.404853 4.414942 0.824821 116 105 79 0
1.405100 4.420401 0.823102 114 105 86 0
1.405348 4.425891 0.821372 110 102 86 0
1.405597 4.431411 0.819633 119 104 91 0
1.405848 4.436964 0.817885 121 107 95 0
1.406100 4.442548 0.816126 126 109 104 0
1.406354 4.448164 0.814357 121 112 97 0
1.406609 4.453812 0.812578 123 111 97 0
1.406866 4.459493 0.810788 117 108 91 0
0.090735 5.131848 0.106010 115 103 86 0
0.121931 5.129516 0.118206 111 100 80 0
0.152487 5.127231 0.130150 105 90 73 0
0.182422 5.124992 0.141853 100 93 66 0
0.211755 5.122798 0.153320 103 91 70 0
0.240503 5.120648 0.164558 107 89 72 0
0.268685 5.118541 0.175575 109 91 69 0
0.296316 5.116475 0.186377 107 89 68 0
0.323413 5.114449 0.196970 106 88 74 0
0.349991 5.112461 0.207360 106 93 75 0
0.376065 5.110511 0.217552 103 89 68 0
0.401649 5.108598 0.227554 111 93 71 0
0.426757 5.106720 0.237369 108 91 71 0
0.451401 5.104877 0.247003 111 96 81 0
0.475595 5.103068 0.256461 107 93 64 0
0.499351 5.101292 0.265748 105 93 71 0
0.522680 5.099547 0.274868 110 94 71 0
0.545595 5.097834 0.283826 112 96 71 0
0.568105 5.096150 0.292625 109 94 74 0
0.590222 5.094496 0.301271 110 95 73 0
0.611956 5.092871 0.309768 108 95 79 0
0.633316 5.091273 0.318118 111 100 72 0
0.654312 5.089704 0.326326 113 97 74 0
0.674954 5.088160 0.334395 112 96 80 0
0.695251 5.086642 0.342330 116 98 80 0
0.715210 5.085149 0.350132 113 96 72 0
0.734840 5.083682 0.357806 111 99 75 0
0.754150 5.082238 0.365355 117 100 81 0
0.773147 5.080817 0.372781 119 101 81 0
0.791838 5.079419 0.380088 114 97 81 0
0.810231 5.078044 0.387278 115 100 81 0
0.828334 5.076690 0.394355 115 97 85 0
0.846152 5.075357 0.401321 116 101 82 0
0.863693 5.074046 0.408178 120 102 83 0
0.880963 5.072754 0.414929 120 102 87 0
0.897968 5.071483 0.421576 119 105 84 0
0.914714 5.070230 0.428123 118 101 81 0
0.931207 5.068997 0.434570 121 104 82 0
0.947453 5.067782 0.440921 121 103 85 0
0.963457 5.066586 0.447178 118 109 83 0
0.979226 5.065406 0.453342 121 106 87 0
0.994762 5.064244 0.459416 123 105 85 0
1.010073 5.063099 0.465401 123 109 89 0
1.025162 5.061971 0.471300 120 104 88 0
1.040035 5.060859 0.477114 125 108 92 0
1.054697 5.059762 0.482845 128 110 88 0
1.069150 5.058681 0.488496 128 113 90 0
1.083401 5.057616 0.494067 126 110 93 0
1.097453 5.056565 0.499560 126 108 94 0
1.111311 5.055529 0.504977 120 103 87 0
1.124978 5.054507 0.510320 124 110 86 0
1.138458 5.053499 0.515590 123 114 86 0
1.151756 5.052505 0.520788 126 112 82 0
1.164874 5.051523 0.525916 126 112 85 0
1.177817 5.050555 0.530976 124 112 88 0
1.190587 5.049601 0.535968 124 109 90 0
1.203189 5.048658 0.540895 129 112 92 0
1.215626 5.047728 0.545756 126 113 92 0
1.227900 5.046810 0.550555 128 112 94 0
1.240016 5.045904 0.555291 129 112 85 0
1.251975 5.045010 0.559966 132 114 92 0
1.263782 5.044127 0.564582 129 111 91 0
1.275439 5.043255 0.569139 130 111 94 0
1.286948 5.042395 0.573638 129 114 95 0
1.298313 5.041544 0.578081 132 113 98 0
1.309537 5.040705 0.582468 135 113 100 0
1.320621 5.039876 0.586802 135 108 97 0
1.331569 5.039058 0.591081 131 115 90 0
1.342383 5.038249 0.595309 128 114 97 0
1.353065 5.037450 0.599485 132 115 95 0
1.363619 5.036661 0.603610 130 114 97 0
1.374045 5.035881 0.607686 128 113 94 0
1.384347 5.035111 0.611713 130 118 94 0
1.394526 5.034349 0.615693 134 115 107 0
1.404586 5.033597 0.619625 127 114 94 0
1.414527 5.032854 0.623511 130 114 96 0
1.424352 5.032119 0.627352 136 119 99 0
1.434064 5.031393 0.631149 136 119 101 0
1.443663 5.030675 0.634901 138 120 100 0
1.453152 5.029965 0.638611 135 122 105 0
1.462533 5.029264 0.642278 140 128 102 0
1.471808 5.028571 0.645904 141 123 109 0
1.480978 5.027884 0.649489 150 131 119 0
1.490046 5.027207 0.653034 151 129 116 0
1.499012 5.026536 0.656539 153 131 114 0
1.507879 5.025873 0.660005 159 141 121 0
1.516648 5.025218 0.663433 158 136 113 0
1.525321 5.024569 0.666824 159 142 121 0
1.533900 5.023927 0.670177 156 142 110 0
1.542385 5.023293 0.673494 157 140 119 0
1.550779 5.022665 0.676776 163 146 120 0
1.559083 5.022044 0.680022 160 143 113 0
1.567299 5.021430 0.683233 161 139 115 0
1.575427 5.020822 0.686411 167 145 121 0
1.583469 5.020221 0.689555 166 144 120 0
1.591427 5.019625 0.692666 161 144 118 0
1.599301 5.019036 0.695744 158 141 114 0
1.607094 5.018454 0.698791 161 141 118 0
1.614807 5.017877 0.701805 162 144 125 0
1.622439 5.017306 0.704789 159 141 126 0
1.629994 5.016741 0.707743 157 146 120 0
1.637472 5.016182 0.710666 164 148 118 0
1.644874 5.015628 0.713560 169 144 121 0
1.652202 5.015080 0.716424 168 148 124 0
1.659456 5.014538 0.719260 165 145 127 0
1.666637 5.014001 0.722067 169 147 126 0
1.673748 5.013470 0.724847 169 149 124 0
1.680788 5.012943 0.727599 164 146 124 0
1.687758 5.012422 0.730324 163 145 125 0
1.694661 5.011906 0.733023 152 133 116 0
1.701497 5.011395 0.735695 120 103 86 0
1.708266 5.010888 0.738341 83 71 57 0
1.714970 5.010387 0.740962 33 26 16 0
1.721609 5.009890 0.743557 26 22 13 0
1.728186 5.009398 0.746128 23 20 10 0
1.734699 5.008911 0.748674 23 20 10 0
1.741152 5.008429 0.751197 21 18 7 0
1.747543 5.007951 0.753695 20 18 10 0
1.753874 5.007477 0.756170 20 18 10 0
1.760147 5.007009 0.758622 20 18 10 0
1.766361 5.006544 0.761052 21 15 7 0
1.772518 5.006083 0.763458 24 16 7 0
1.920680 4.768011 0.896632 63 52 30 0
1.923524 4.770743 0.896767 103 87 62 0
1.925715 4.774577 0.896298 133 112 83 0
1.926986 4.780002 0.894965 163 134 102 0
1.929188 4.783850 0.894496 163 140 99 0
1.930388 4.789462 0.893075 165 141 103 0
1.930421 4.797180 0.890528 171 138 107 0
1.931926 4.802353 0.889364 169 131 102 0
1.930535 4.812778 0.885399 168 137 111 0
1.931361 4.819302 0.883538 168 137 103 0
1.932739 4.824871 0.882196 171 136 103 0
1.934895 4.829036 0.881605 164 139 103 0
1.934535 4.837924 0.878526 164 138 99 0
1.935430 4.844543 0.876660 173 137 111 0
1.937533 4.848920 0.875979 163 130 99 0
1.924271 4.882890 0.859861 147 118 88 0
1.947117 4.847271 0.880034 149 114 84 0
1.950406 4.849272 0.880575 140 103 68 0
1.953685 4.851266 0.881115 135 104 76 0
1.956952 4.853254 0.881652 140 105 78 0
1.960209 4.855236 0.882188 142 111 80 0
1.963456 4.857210 0.882722 133 102 72 0
1.966691 4.859179 0.883254 133 110 77 0
1.969917 4.861140 0.883784 142 105 79 0
1.973131 4.863096 0.884313 141 111 83 0
1.976336 4.865045 0.884840 141 109 87 0
1.979530 4.866988 0.885365 146 111 71 0
1.982713 4.868925 0.885889 143 110 75 0
1.985887 4.870855 0.886411 149 116 82 0
1.989050 4.872779 0.886931 151 119 82 0
1.992203 4.874697 0.887450 152 116 96 0
1.995346 4.876609 0.887967 148 117 79 0
1.998479 4.878514 0.888482 151 117 91 0
2.001601 4.880414 0.888995 155 115 88 0
2.004714 4.882308 0.889507 154 121 90 0
2.007817 4.884195 0.890018 147 113 90 0
1.401282 4.025580 0.948040 122 100 86 0
1.401512 4.029016 0.946975 117 98 82 0
1.401742 4.032468 0.945905 112 95 69 0
1.401974 4.035934 0.944831 102 95 67 0
1.402207 4.039416 0.943752 104 87 73 0
1.402441 4.042913 0.942668 109 87 71 0
1.402675 4.046425 0.941579 113 98 73 0
1.402911 4.049953 0.940485 117 104 88 0
1.403148 4.053497 0.939387 119 106 84 0
1.403386 4.057056 0.938284 119 101 89 0
1.403625 4.060632 0.937176 126 99 87 0
1.403865 4.064223 0.936063 117 99 77 0
1.404106 4.067831 0.934945 121 105 84 0
1.404348 4.071455 0.933821 121 104 86 0
1.404592 4.075094 0.932693 117 100 84 0
1.404836 4.078751 0.931560 121 103 89 0
1.405082 4.082424 0.930421 121 105 92 0
1.405328 4.086113 0.929278 117 102 79 0
1.405576 4.089820 0.928129 119 104 83 0
1.405825 4.093543 0.926975 119 110 81 0
1.406075 4.097283 0.925816 122 106 86 0
1.406326 4.101040 0.924651 125 102 84 0
1.406579 4.104815 0.923481 116 105 86 0
1.406832 4.108607 0.922306 122 107 94 0
1.407087 4.112416 0.921125 120 104 89 0
1.407342 4.116243 0.919939 121 109 85 0
1.407599 4.120088 0.918747 119 111 81 0
1.407858 4.123950 0.917550 122 104 84 0
1.408117 4.127831 0.916348 121 107 81 0
1.408378 4.131730 0.915139 118 106 80 0
1.408639 4.135646 0.913925 115 108 89 0
1.408903 4.139581 0.912706 118 106 80 0
1.409167 4.143535 0.911480 123 106 88 0
1.409432 4.147507 0.910249 122 104 92 0
1.409699 4.151498 0.909012 123 103 91 0
1.409967 4.155508 0.907769 124 109 87 0
1.410236 4.159536 0.906521 120 107 90 0
1.410507 4.163584 0.905266 121 106 88 0
1.410779 4.167652 0.904005 122 105 90 0
1.411052 4.171738 0.902739 121 106 83 0
1.411327 4.175844 0.901466 121 106 88 0
1.411602 4.179970 0.900187 116 111 84 0
1.411880 4.184115 0.898902 125 110 87 0
1.412158 4.188281 0.897611 122 104 92 0
1.412438 4.192467 0.896314 123 108 87 0
1.412719 4.196673 0.895010 117 110 88 0
1.413001 4.200899 0.893700 123 107 91 0
1.413285 4.205146 0.892384 122 105 85 0
1.413571 4.209414 0.891061 114 109 89 0
1.413857 4.213702 0.889732 115 104 84 0
1.414145 4.218011 0.888396 104 89 70 0
1.414435 4.222342 0.887054 106 94 69 0
1.414726 4.226694 0.885705 102 88 76 0
0.105804 4.589210 0.279449 105 98 72 0
0.112156 4.597850 0.278910 95 91 78 0
0.141521 4.599987 0.289074 99 85 76 0
0.179939 4.599312 0.303532 95 80 71 0
0.204617 4.602351 0.311658 92 81 70 0
0.227024 4.605892 0.318774 91 82 66 0
0.293263 4.596083 0.346596 91 86 68 0
0.372894 4.581616 0.380940 95 87 66 0
0.404643 4.581322 0.392800 95 88 69 0
0.424735 4.584456 0.399195 103 91 74 0
0.444746 4.587479 0.405596 108 102 78 0
1.398832 4.286973 0.859641 115 104 84 0
1.399047 4.291743 0.858124 120 113 87 0
1.399263 4.296538 0.856599 130 119 101 0
1.399480 4.301359 0.855066 129 113 95 0
1.399699 4.306205 0.853525 133 116 101 0
1.399918 4.311077 0.851976 133 118 98 0
1.400139 4.315975 0.850418 131 116 98 0
1.400361 4.320899 0.848852 126 108 95 0
1.400584 4.325850 0.847277 133 116 90 0
1.400808 4.330828 0.845694 126 119 88 0
1.401033 4.335833 0.844103 128 115 95 0
1.401260 4.340865 0.842502 122 112 95 0
1.401488 4.345924 0.840893 125 109 93 0
1.401717 4.351011 0.839276 124 109 90 0
1.401947 4.356126 0.837649 124 108 82 0
1.402179 4.361269 0.836013 121 105 89 0
1.402412 4.366440 0.834369 118 104 93 0
1.402646 4.371640 0.832715 120 107 91 0
1.402882 4.376869 0.831052 118 110 89 0
1.403118 4.382126 0.829380 123 106 86 0
1.403356 4.387413 0.827699 120 108 90 0
1.403596 4.392730 0.826008 118 106 90 0
1.403837 4.398076 0.824308 117 102 87 0
1.404079 4.403452 0.822598 121 105 93 0
1.404322 4.408859 0.820878 117 103 92 0
1.404567 4.414296 0.819149 116 99 85 0
1.404814 4.419764 0.817410 115 103 87 0
1.405061 4.425263 0.815662 115 107 86 0
1.405310 4.430793 0.813903 117 113 83 0
1.405561 4.436355 0.812134 117 109 90 0
1.405813 4.441949 0.810355 120 112 94 0
1.406066 4.447575 0.808566 117 111 89 0
1.406321 4.453233 0.806766 118 111 95 0
1.406577 4.458924 0.804956 122 110 93 0
1.406835 4.464648 0.803136 119 105 94 0
0.118768 5.129539 0.103397 116 103 84 0
0.149453 5.127247 0.115532 112 99 82 0
0.179512 5.125001 0.127420 102 95 76 0
0.208965 5.122801 0.139068 99 89 71 0
0.237829 5.120644 0.150483 106 92 76 0
0.266123 5.118530 0.161672 107 89 65 0
0.293862 5.116458 0.172643 104 91 64 0
0.321064 5.114426 0.183400 111 94 78 0
0.347743 5.112432 0.193951 113 90 73 0
0.373914 5.110477 0.204301 107 89 67 0
0.399592 5.108559 0.214457 107 91 72 0
0.424791 5.106676 0.224422 107 91 75 0
0.449523 5.104829 0.234203 108 91 73 0
0.473803 5.103014 0.243805 113 95 75 0
0.497641 5.101233 0.253233 108 93 72 0
0.521050 5.099485 0.262490 108 91 72 0
0.544042 5.097767 0.271583 106 94 68 0
0.566627 5.096080 0.280515 109 95 77 0
0.588816 5.094422 0.289290 110 97 77 0
0.610620 5.092793 0.297913 108 98 70 0
0.632048 5.091192 0.306388 108 95 80 0
0.653110 5.089619 0.314717 106 94 75 0
0.673816 5.088072 0.322906 112 93 79 0
0.694174 5.086551 0.330957 119 97 83 0
0.714193 5.085055 0.338874 113 99 71 0
0.733881 5.083584 0.346660 115 102 85 0
0.753247 5.082138 0.354319 114 98 73 0
0.772299 5.080714 0.361854 117 96 75 0
0.791043 5.079314 0.369267 117 101 85 0
0.809488 5.077936 0.376561 113 100 83 0
0.827640 5.076580 0.383740 117 100 81 0
0.845507 5.075245 0.390806 118 104 77 0
0.863095 5.073931 0.397762 117 103 77 0
0.880410 5.072637 0.404609 119 101 84 0
0.897460 5.071363 0.411352 121 103 88 0
0.914249 5.070109 0.417992 121 102 87 0
0.930784 5.068874 0.424531 120 103 88 0
0.947070 5.067657 0.430972 120 103 85 0
0.963114 5.066459 0.437317 121 104 83 0
0.978920 5.065278 0.443568 124 106 87 0
0.994494 5.064115 0.449727 125 105 82 0
1.009841 5.062968 0.455796 126 110 85 0
1.024966 5.061838 0.461778 119 108 86 0
1.039873 5.060724 0.467673 122 104 92 0
1.054567 5.059626 0.473485 130 111 88 0
1.069054 5.058544 0.479214 126 108 88 0
1.083336 5.057477 0.484862 127 108 90 0
1.097419 5.056425 0.490431 123 105 91 0
1.111306 5.055387 0.495923 125 109 96 0
1.125002 5.054364 0.501340 128 112 98 0
1.138510 5.053355 0.506682 128 112 89 0
1.151835 5.052359 0.511952 125 112 95 0
1.164980 5.051377 0.517150 128 110 98 0
1.177948 5.050408 0.522279 128 111 93 0
1.190744 5.049452 0.527340 129 111 91 0
1.203371 5.048509 0.532333 130 112 102 0
1.215831 5.047578 0.537261 126 109 95 0
1.228129 5.046659 0.542124 130 112 88 0
1.240267 5.045753 0.546925 129 111 90 0
1.252248 5.044858 0.551663 133 118 98 0
1.264077 5.043974 0.556341 131 115 92 0
1.275754 5.043101 0.560959 129 109 84 0
1.287284 5.042240 0.565519 129 112 94 0
1.298669 5.041389 0.570021 131 113 93 0
1.309912 5.040549 0.574468 131 113 93 0
1.321015 5.039720 0.578859 131 114 88 0
1.331981 5.038901 0.583196 133 115 98 0
1.342813 5.038092 0.587479 136 117 93 0
1.353512 5.037292 0.591711 130 117 98 0
1.364082 5.036502 0.595891 133 112 93 0
1.374525 5.035722 0.600021 134 115 93 0
1.384843 5.034951 0.604101 131 117 91 0
1.395038 5.034190 0.608133 131 115 94 0
1.405113 5.033437 0.612118 134 117 109 0
1.415069 5.032693 0.616055 135 116 100 0
1.424909 5.031958 0.619946 136 119 101 0
1.434634 5.031231 0.623793 140 127 110 0
1.444247 5.030513 0.627594 139 123 107 0
1.453750 5.029803 0.631352 143 128 105 0
1.463144 5.029101 0.635068 148 131 115 0
1.472432 5.028408 0.638741 147 124 107 0
1.481614 5.027722 0.642372 147 127 113 0
1.490694 5.027043 0.645963 152 129 115 0
1.499672 5.026373 0.649513 151 132 114 0
1.508550 5.025709 0.653025 152 136 116 0
1.517330 5.025053 0.656497 156 138 109 0
1.526014 5.024405 0.659931 156 140 113 0
1.534603 5.023763 0.663328 157 141 115 0
1.543099 5.023128 0.666688 158 141 124 0
1.551503 5.022501 0.670012 155 137 116 0
1.559817 5.021879 0.673300 160 142 120 0
1.568042 5.021265 0.676552 160 142 120 0
1.576179 5.020657 0.679770 161 143 121 0
1.584230 5.020055 0.682954 164 142 121 0
1.592197 5.019460 0.686105 161 144 118 0
1.600080 5.018871 0.689223 161 144 123 0
1.607882 5.018288 0.692308 162 145 117 0
1.615602 5.017712 0.695361 165 145 118 0
1.623243 5.017141 0.698383 167 143 124 0
1.630805 5.016576 0.701374 169 141 126 0
1.638291 5.016016 0.704334 171 145 122 0
1.645700 5.015463 0.707264 166 144 121 0
1.653035 5.014915 0.710165 168 145 127 0
1.660296 5.014373 0.713037 162 146 117 0
1.667484 5.013835 0.715880 164 146 128 0
1.674601 5.013304 0.718694 161 143 122 0
1.681648 5.012777 0.721481 163 145 122 0
1.688625 5.012256 0.724240 163 144 127 0
1.695534 5.011740 0.726973 148 129 114 0
1.702375 5.011229 0.729678 115 97 83 0
1.709150 5.010723 0.732358 77 65 51 0
1.715860 5.010221 0.735011 32 25 13 0
1.722505 5.009725 0.737639 26 22 13 0
1.729086 5.009233 0.740242 23 20 10 0
1.735605 5.008746 0.742820 23 20 10 0
1.742063 5.008264 0.745374 23 17 5 0
1.748459 5.007786 0.747903 20 18 10 0
1.754795 5.007313 0.750409 20 18 10 0
1.761072 5.006844 0.752891 20 18 10 0
1.767291 5.006379 0.755351 21 15 7 0
1.773452 5.005919 0.757787 26 18 11 0
1.920963 4.768623 0.891862 69 58 36 0
1.923440 4.771993 0.891651 109 90 63 0
1.925917 4.775363 0.891441 140 114 87 0
1.927199 4.780793 0.890098 168 136 111 0
1.928309 4.786558 0.888580 172 135 106 0
1.929252 4.792663 0.886886 170 136 101 0
1.930393 4.798468 0.885366 167 139 102 0
1.932058 4.803380 0.884338 164 141 100 0
1.930626 4.813911 0.880283 171 141 102 0
1.932445 4.818654 0.879369 172 136 104 0
1.932853 4.826016 0.877057 168 138 109 0
1.934312 4.831499 0.875762 169 138 99 0
1.934410 4.839573 0.873096 160 138 90 0
1.935494 4.845869 0.871390 165 133 102 0
1.937606 4.850255 0.870704 163 134 100 0
1.939838 4.854426 0.870135 155 122 91 0
1.947735 4.847581 0.875352 142 112 84 0
1.951029 4.849586 0.875901 132 104 65 0
1.954313 4.851583 0.876449 134 101 58 0
1.957585 4.853573 0.876995 139 108 64 0
1.960847 4.855558 0.877540 136 105 74 0
1.964098 4.857535 0.878082 133 104 72 0
1.967339 4.859507 0.878623 141 110 79 0
1.970569 4.861472 0.879162 145 106 76 0
1.973788 4.863430 0.879699 144 110 73 0
1.976997 4.865382 0.880234 147 115 74 0
1.980196 4.867328 0.880768 144 114 74 0
1.983384 4.869268 0.881300 143 113 79 0
1.986562 4.871201 0.881830 143 111 88 0
1.989730 4.873128 0.882359 147 114 92 0
1.992887 4.875049 0.882886 151 118 92 0
1.996035 4.876964 0.883411 142 115 83 0
1.999172 4.878872 0.883934 150 119 93 0
2.002299 4.880774 0.884456 153 117 96 0
2.005416 4.882670 0.884976 163 122 100 0
2.008524 4.884561 0.885495 162 117 94 0
1.401158 4.024439 0.943804 107 86 65 0
1.401388 4.027878 0.942728 106 86 59 0
1.401618 4.031332 0.941647 107 88 80 0
1.401850 4.034801 0.940562 115 102 82 0
1.402083 4.038285 0.939472 122 101 85 0
1.402317 4.041785 0.938377 124 100 86 0
1.402552 4.045300 0.937277 113 103 82 0
1.402788 4.048831 0.936172 118 103 88 0
1.403025 4.052378 0.935062 119 102 89 0
1.403263 4.055940 0.933948 124 108 90 0
1.403502 4.059518 0.932828 123 101 88 0
1.403742 4.063113 0.931704 121 102 87 0
1.403983 4.066723 0.930574 120 103 86 0
1.404226 4.070350 0.929439 124 99 87 0
1.404469 4.073993 0.928300 124 99 79 0
1.404713 4.077653 0.927155 118 105 86 0
1.404959 4.081329 0.926004 115 99 84 0
1.405206 4.085022 0.924849 121 108 76 0
1.405454 4.088731 0.923688 123 103 92 0
1.405703 4.092458 0.922523 126 103 92 0
1.405953 4.096202 0.921351 124 103 79 0
1.406204 4.099962 0.920175 115 105 81 0
1.406456 4.103740 0.918993 124 106 82 0
1.406710 4.107536 0.917805 123 105 90 0
1.406965 4.111349 0.916612 122 100 90 0
1.407221 4.115180 0.915414 120 105 84 0
1.407478 4.119028 0.914210 112 102 88 0
1.407736 4.122894 0.913000 116 108 73 0
1.407996 4.126778 0.911785 119 104 81 0
1.408257 4.130681 0.910564 123 109 84 0
1.408519 4.134601 0.909337 121 109 83 0
1.408782 4.138540 0.908105 125 109 86 0
1.409046 4.142498 0.906867 116 104 80 0
1.409312 4.146473 0.905623 115 103 89 0
1.409579 4.150468 0.904373 122 107 87 0
1.409847 4.154482 0.903117 118 111 86 0
1.410116 4.158515 0.901855 120 108 88 0
1.410387 4.162567 0.900587 122 104 97 0
1.410659 4.166638 0.899314 122 104 87 0
1.410932 4.170729 0.898034 125 111 93 0
1.411207 4.174839 0.896748 120 106 94 0
1.411483 4.178970 0.895456 129 107 89 0
1.411760 4.183120 0.894157 117 101 86 0
1.412039 4.187290 0.892852 119 104 81 0
1.412319 4.191480 0.891541 120 108 84 0
1.412600 4.195691 0.890224 123 108 85 0
1.412883 4.199922 0.888900 121 108 87 0
1.413167 4.204173 0.887570 122 107 86 0
1.413452 4.208446 0.886233 119 103 87 0
1.413739 4.212739 0.884890 117 101 82 0
1.414028 4.217053 0.883540 104 97 71 0
1.414317 4.221389 0.882184 100 93 83 0
1.414608 4.225746 0.880821 94 92 70 0
0.109414 4.585958 0.269873 110 98 85 0
0.115766 4.594599 0.269334 101 92 84 0
0.125564 4.602269 0.270415 95 89 75 0
0.160548 4.602698 0.283383 97 80 73 0
0.202684 4.600783 0.299824 93 81 64 0
0.226162 4.604049 0.307521 92 83 66 0
0.261246 4.603669 0.320799 91 83 63 0
0.344257 4.588408 0.357071 94 81 65 0
0.387633 4.584690 0.374587 96 92 65 0
0.424319 4.582718 0.389004 101 89 65 0
0.447911 4.584629 0.397201 108 100 81 0
1.398553 4.286125 0.854400 118 107 89 0
1.398768 4.290902 0.852866 124 112 88 0
1.398983 4.295703 0.851324 129 112 102 0
1.399200 4.300531 0.849774 130 116 96 0
1.399418 4.305384 0.848216 126 119 87 0
1.399637 4.310263 0.846649 131 115 88 0
1.399858 4.315169 0.845074 133 111 98 0
1.400079 4.320101 0.843491 130 113 96 0
1.400302 4.325059 0.841899 128 113 100 0
1.400526 4.330044 0.840298 131 113 94 0
1.400751 4.335057 0.838688 127 114 98 0
1.400977 4.340096 0.837070 126 115 101 0
1.401205 4.345164 0.835443 118 106 90 0
1.401433 4.350258 0.833807 122 109 95 0
1.401663 4.355381 0.832163 122 109 90 0
1.401895 4.360532 0.830509 124 106 92 0
1.402127 4.365712 0.828846 119 106 90 0
1.402361 4.370920 0.827173 126 110 90 0
1.402596 4.376157 0.825492 114 106 85 0
1.402833 4.381423 0.823801 116 104 88 0
1.403071 4.386719 0.822101 119 106 88 0
1.403310 4.392045 0.820391 117 103 94 0
1.403550 4.397399 0.818671 120 103 94 0
1.403792 4.402785 0.816942 119 104 83 0
1.404036 4.408200 0.815203 115 102 88 0
1.404280 4.413647 0.813455 115 103 87 0
1.404526 4.419124 0.811696 110 100 78 0
1.404773 4.424633 0.809927 116 103 87 0
1.405022 4.430172 0.808149 119 111 91 0
1.405272 4.435744 0.806360 124 111 92 0
1.405524 4.441348 0.804560 125 115 98 0
1.405777 4.446983 0.802751 122 113 96 0
1.406032 4.452652 0.800931 122 113 98 0
1.406288 4.458353 0.799100 124 115 100 0
1.406545 4.464087 0.797259 124 110 91 0
1.406804 4.469855 0.795407 119 108 88 0
1.407065 4.475656 0.793544 116 99 87 0
0.176584 5.125010 0.112897 106 99 81 0
0.206158 5.122803 0.124728 102 94 74 0
0.235140 5.120640 0.136322 102 90 71 0
0.263546 5.118520 0.147686 105 91 74 0
0.291394 5.116441 0.158826 108 90 71 0
0.318701 5.114403 0.169750 105 89 65 0
0.345481 5.112404 0.180464 106 92 71 0
0.371750 5.110443 0.190973 104 86 60 0
0.397523 5.108520 0.201283 107 88 75 0
0.422814 5.106632 0.211401 110 93 75 0
0.447635 5.104779 0.221331 102 89 73 0
0.472000 5.102961 0.231078 104 92 66 0
0.495921 5.101175 0.240648 115 94 67 0
0.519410 5.099422 0.250044 106 93 71 0
0.542480 5.097701 0.259273 117 95 77 0
0.565140 5.096009 0.268339 104 96 69 0
0.587402 5.094347 0.277245 108 93 73 0
0.609276 5.092715 0.285995 107 94 71 0
0.630773 5.091111 0.294595 111 95 69 0
0.651901 5.089534 0.303048 109 95 70 0
0.672671 5.087983 0.311357 109 97 75 0
0.693091 5.086459 0.319526 114 97 80 0
0.713170 5.084960 0.327559 113 97 75 0
0.732918 5.083487 0.335458 112 99 80 0
0.752340 5.082037 0.343228 112 101 79 0
0.771447 5.080611 0.350872 115 101 73 0
0.790244 5.079208 0.358392 114 98 82 0
0.808741 5.077827 0.365792 117 99 79 0
0.826943 5.076469 0.373073 120 102 81 0
0.844859 5.075131 0.380241 115 99 83 0
0.862494 5.073815 0.387296 115 99 83 0
0.879855 5.072520 0.394241 120 101 87 0
0.896949 5.071244 0.401079 118 102 86 0
0.913781 5.069987 0.407813 120 103 85 0
0.930358 5.068750 0.414445 119 104 85 0
0.946686 5.067532 0.420977 120 104 88 0
0.962769 5.066331 0.427411 120 107 83 0
0.978614 5.065148 0.433749 121 110 90 0
0.994225 5.063983 0.439995 116 99 80 0
1.009609 5.062835 0.446149 123 108 85 0
1.024768 5.061704 0.452214 126 108 91 0
1.039710 5.060588 0.458191 127 108 91 0
1.054438 5.059489 0.464083 122 104 90 0
1.068956 5.058405 0.469891 122 110 88 0
1.083270 5.057337 0.475617 126 111 83 0
1.097384 5.056284 0.481263 124 107 97 0
1.111301 5.055245 0.486831 125 107 86 0
1.125026 5.054221 0.492322 126 109 86 0
1.138562 5.053210 0.497737 126 110 90 0
1.151915 5.052214 0.503079 124 109 92 0
1.165086 5.051231 0.508348 124 112 92 0
1.178081 5.050261 0.513547 128 113 96 0
1.190902 5.049304 0.518676 125 110 87 0
1.203553 5.048360 0.523737 126 110 94 0
1.216037 5.047428 0.528731 131 113 93 0
1.228358 5.046508 0.533660 131 115 94 0
1.240519 5.045601 0.538525 128 113 92 0
1.252523 5.044704 0.543327 129 116 97 0
1.264372 5.043820 0.548068 129 114 85 0
1.276071 5.042947 0.552748 126 119 93 0
1.287621 5.042085 0.557368 135 118 95 0
1.299026 5.041234 0.561931 129 112 94 0
1.310288 5.040393 0.566436 130 112 96 0
1.321410 5.039563 0.570886 132 115 99 0
1.332394 5.038743 0.575280 133 117 96 0
1.343244 5.037933 0.579620 132 114 93 0
1.353961 5.037133 0.583908 128 113 97 0
1.364548 5.036344 0.588143 132 115 94 0
1.375008 5.035563 0.592327 132 117 92 0
1.385341 5.034791 0.596461 133 118 92 0
1.395552 5.034029 0.600546 134 118 98 0
1.405642 5.033276 0.604583 134 115 94 0
1.415613 5.032532 0.608572 135 123 96 0
1.425467 5.031796 0.612514 137 125 99 0
1.435207 5.031069 0.616410 143 124 109 0
1.444834 5.030351 0.620261 140 123 103 0
1.454350 5.029641 0.624068 143 126 100 0
1.463757 5.028938 0.627832 146 128 104 0
1.473057 5.028244 0.631552 146 128 109 0
1.482252 5.027558 0.635231 142 128 110 0
1.491343 5.026879 0.638868 150 128 111 0
1.500333 5.026209 0.642464 148 135 113 0
1.509223 5.025545 0.646020 154 134 117 0
1.518015 5.024889 0.649538 152 135 112 0
1.526709 5.024240 0.653016 155 138 117 0
1.535309 5.023598 0.656456 155 137 118 0
1.543815 5.022963 0.659859 159 141 119 0
1.552229 5.022335 0.663225 162 144 122 0
1.560553 5.021714 0.666555 161 140 118 0
1.568787 5.021099 0.669849 160 139 118 0
1.576934 5.020492 0.673108 161 141 116 0
1.584994 5.019890 0.676333 164 138 121 0
1.592970 5.019294 0.679523 169 145 119 0
1.600862 5.018705 0.682681 164 145 113 0
1.608671 5.018123 0.685805 160 142 116 0
1.616400 5.017546 0.688897 163 143 116 0
1.624049 5.016975 0.691957 167 146 117 0
1.631619 5.016410 0.694985 164 146 120 0
1.639112 5.015851 0.697983 168 144 112 0
1.646529 5.015297 0.700950 165 146 112 0
1.653871 5.014749 0.703887 164 148 122 0
1.661139 5.014206 0.706794 168 142 124 0
1.668334 5.013669 0.709673 170 149 119 0
1.675457 5.013138 0.712523 170 146 126 0
1.682510 5.012611 0.715344 167 147 121 0
1.689494 5.012090 0.718138 161 143 121 0
1.696409 5.011574 0.720904 142 127 106 0
1.703256 5.011063 0.723644 110 95 76 0
1.710037 5.010557 0.726356 71 59 42 0
1.716752 5.010056 0.729043 30 23 11 0
1.723403 5.009559 0.731703 23 20 8 0
1.729990 5.009068 0.734338 22 18 7 0
1.736514 5.008581 0.736948 22 18 7 0
1.742976 5.008099 0.739534 24 18 7 0
1.749377 5.007620 0.742095 22 18 11 0
1.755718 5.007147 0.744631 20 17 8 0
1.762000 5.006679 0.747144 20 17 7 0
1.768224 5.006214 0.749634 21 15 7 0
1.774389 5.005754 0.752100 32 25 13 0
1.921719 4.768449 0.887513 76 63 41 0
1.924477 4.771353 0.887566 114 94 70 0
1.926127 4.776144 0.886565 151 120 92 0
1.926776 4.782686 0.884598 172 135 106 0
1.928174 4.787984 0.883331 170 137 102 0
1.930037 4.792500 0.882504 173 135 99 0
1.931095 4.798467 0.880884 166 140 102 0
1.931419 4.805794 0.878530 172 141 108 0
1.931976 4.812777 0.876379 171 134 114 0
1.932820 4.819302 0.874490 173 138 108 0
1.933829 4.825580 0.872747 176 137 110 0
1.934006 4.833461 0.870150 172 136 108 0
1.934383 4.841049 0.867727 170 137 97 0
1.936494 4.845430 0.867038 165 137 101 0
1.937688 4.851582 0.865407 153 129 82 0
1.926002 4.882660 0.850525 152 117 87 0
1.948355 4.847893 0.870652 135 109 79 0
1.951654 4.849900 0.871210 141 103 83 0
1.954943 4.851900 0.871767 128 98 60 0
1.958220 4.853894 0.872322 133 101 60 0
1.961487 4.855881 0.872874 131 102 68 0
1.964743 4.857862 0.873426 138 109 77 0
1.967988 4.859837 0.873975 133 103 75 0
1.971223 4.861804 0.874522 138 111 80 0
1.974447 4.863766 0.875068 136 107 76 0
1.977661 4.865721 0.875612 141 110 80 0
1.980864 4.867670 0.876154 143 112 85 0
1.984057 4.869612 0.876695 140 109 84 0
1.987240 4.871549 0.877233 151 112 92 0
1.990412 4.873478 0.877770 144 110 79 0
1.993574 4.875402 0.878305 142 116 78 0
1.996726 4.877319 0.878839 153 122 85 0
1.999868 4.879231 0.879371 155 115 96 0
2.002999 4.881136 0.879901 165 126 96 0
2.006121 4.883035 0.880429 153 118 88 0
2.009233 4.884928 0.880956 158 126 85 0
1.401033 4.023294 0.939555 121 98 67 0
1.401263 4.026735 0.938468 120 96 85 0
1.401494 4.030192 0.937376 114 95 88 0
1.401726 4.033664 0.936280 121 97 79 0
1.401959 4.037151 0.935179 113 100 83 0
1.402193 4.040654 0.934073 121 104 89 0
1.402428 4.044172 0.932962 123 101 85 0
1.402664 4.047706 0.931846 121 105 80 0
1.402901 4.051255 0.930725 120 105 82 0
1.403139 4.054821 0.929599 126 106 85 0
1.403378 4.058402 0.928468 126 102 90 0
1.403618 4.061999 0.927332 125 103 89 0
1.403860 4.065613 0.926190 121 102 85 0
1.404102 4.069242 0.925044 118 101 86 0
1.404346 4.072889 0.923892 118 105 78 0
1.404590 4.076551 0.922736 122 109 90 0
1.404836 4.080231 0.921574 118 102 77 0
1.405083 4.083927 0.920407 119 104 88 0
1.405331 4.087640 0.919234 123 104 89 0
1.405580 4.091370 0.918056 119 103 87 0
1.405830 4.095117 0.916873 114 101 94 0
1.406082 4.098881 0.915684 127 109 94 0
1.406334 4.102663 0.914490 117 103 87 0
1.406588 4.106462 0.913290 121 103 84 0
1.406843 4.110278 0.912085 119 107 91 0
1.407099 4.114112 0.910874 119 105 92 0
1.407356 4.117964 0.909657 125 105 82 0
1.407614 4.121834 0.908435 129 105 95 0
1.407874 4.125722 0.907207 116 105 82 0
1.408135 4.129628 0.905974 124 105 85 0
1.408397 4.133552 0.904734 120 103 85 0
1.408660 4.137495 0.903489 115 109 87 0
1.408925 4.141457 0.902238 120 107 88 0
1.409191 4.145436 0.900981 123 107 82 0
1.409458 4.149436 0.899718 116 104 78 0
1.409726 4.153453 0.898450 118 108 83 0
1.409996 4.157490 0.897175 122 105 90 0
1.410267 4.161546 0.895894 120 104 89 0
1.410539 4.165622 0.894607 123 105 91 0
1.410812 4.169717 0.893313 118 104 85 0
1.411087 4.173832 0.892014 122 110 87 0
1.411363 4.177966 0.890708 119 107 84 0
1.411641 4.182121 0.889396 112 103 88 0
1.411919 4.186296 0.888078 121 107 96 0
1.412200 4.190490 0.886753 120 109 91 0
1.412481 4.194705 0.885422 121 106 83 0
1.412764 4.198941 0.884084 121 104 86 0
1.413048 4.203197 0.882740 123 104 87 0
1.413334 4.207474 0.881389 122 107 86 0
1.413621 4.211772 0.880032 121 103 81 0
1.413909 4.216092 0.878668 109 97 74 0
1.414199 4.220432 0.877297 104 96 75 0
1.414491 4.224794 0.875920 96 88 71 0
0.113024 4.582707 0.260297 107 96 74 0
0.114545 4.592682 0.257471 102 92 75 0
0.111275 4.604045 0.252355 96 90 79 0
0.145806 4.604714 0.265221 97 83 74 0
0.182917 4.604375 0.279410 94 83 67 0
0.229637 4.600920 0.298305 95 81 70 0
0.261611 4.601498 0.310232 91 84 61 0
0.321264 4.593423 0.335608 92 81 64 0
0.365951 4.589460 0.353905 95 94 74 0
0.419415 4.582379 0.376595 105 92 77 0
0.437619 4.586060 0.382242 101 99 74 0
0.456645 4.589354 0.388333 109 103 77 0
1.398487 4.290057 0.847588 120 108 92 0
1.398703 4.294866 0.846029 125 118 89 0
1.398919 4.299700 0.844462 131 114 94 0
1.399137 4.304561 0.842886 129 111 98 0
1.399355 4.309447 0.841302 132 115 99 0
1.399575 4.314360 0.839710 134 112 91 0
1.399796 4.319299 0.838109 128 111 100 0
1.400019 4.324265 0.836499 128 114 95 0
1.400242 4.329257 0.834880 127 116 94 0
1.400467 4.334278 0.833253 121 114 89 0
1.400693 4.339325 0.831617 126 114 91 0
1.400920 4.344400 0.829972 121 108 91 0
1.401149 4.349503 0.828318 126 111 95 0
1.401379 4.354634 0.826655 122 107 88 0
1.401610 4.359793 0.824982 124 104 93 0
1.401842 4.364981 0.823301 120 104 91 0
1.402075 4.370198 0.821610 116 102 89 0
1.402310 4.375443 0.819909 120 106 94 0
1.402546 4.380718 0.818199 122 108 95 0
1.402784 4.386022 0.816480 117 104 88 0
1.403023 4.391356 0.814751 114 106 85 0
1.403263 4.396720 0.813012 119 99 93 0
1.403505 4.402114 0.811264 119 103 91 0
1.403747 4.407539 0.809505 109 104 87 0
1.403991 4.412995 0.807737 115 101 93 0
1.404237 4.418481 0.805958 112 102 83 0
1.404484 4.423999 0.804169 114 106 86 0
1.404733 4.429549 0.802371 121 110 100 0
1.404983 4.435130 0.800561 129 116 101 0
1.405234 4.440743 0.798742 126 117 100 0
1.405487 4.446389 0.796912 124 116 97 0
1.405741 4.452068 0.795071 125 116 99 0
1.405997 4.457779 0.793220 122 110 94 0
1.406254 4.463524 0.791357 124 107 97 0
1.406513 4.469302 0.789485 121 110 92 0
1.406773 4.475114 0.787600 121 105 87 0
0.173638 5.125019 0.098282 113 106 87 0
0.203334 5.122805 0.110298 112 101 80 0
0.232433 5.120636 0.122073 109 97 72 0
0.260953 5.118508 0.133613 107 92 75 0
0.288911 5.116424 0.144926 108 90 69 0
0.316323 5.114380 0.156018 104 92 70 0
0.343206 5.112375 0.166896 106 93 73 0
0.369574 5.110409 0.177566 107 96 72 0
0.395442 5.108480 0.188034 105 92 74 0
0.420825 5.106587 0.198305 110 93 75 0
0.445735 5.104730 0.208385 109 90 76 0
0.470187 5.102907 0.218279 108 91 65 0
0.494192 5.101117 0.227992 110 95 76 0
0.517762 5.099360 0.237530 102 86 73 0
0.540909 5.097633 0.246896 107 96 70 0
0.563645 5.095938 0.256096 110 94 72 0
0.585981 5.094273 0.265134 112 92 71 0
0.607926 5.092636 0.274014 112 95 73 0
0.629491 5.091028 0.282740 110 96 70 0
0.650686 5.089448 0.291317 109 96 73 0
0.671521 5.087894 0.299747 109 96 76 0
0.692003 5.086367 0.308035 114 98 79 0
0.712143 5.084866 0.316185 109 98 73 0
0.731949 5.083388 0.324199 113 96 77 0
0.751429 5.081936 0.332082 108 95 76 0
0.770590 5.080507 0.339835 110 94 77 0
0.789441 5.079102 0.347463 115 99 74 0
0.807990 5.077719 0.354969 115 98 82 0
0.826243 5.076357 0.362355 114 98 72 0
0.844207 5.075018 0.369624 112 100 78 0
0.861890 5.073699 0.376779 116 101 81 0
0.879297 5.072402 0.383823 117 103 82 0
0.896436 5.071123 0.390758 119 104 85 0
0.913312 5.069865 0.397587 120 103 86 0
0.929931 5.068626 0.404312 120 103 83 0
0.946299 5.067405 0.410935 126 107 91 0
0.962423 5.066203 0.417459 118 102 88 0
0.978306 5.065019 0.423886 119 110 82 0
0.993955 5.063852 0.430219 119 108 79 0
1.009375 5.062702 0.436458 122 110 84 0
1.024570 5.061569 0.442607 122 105 86 0
1.039546 5.060452 0.448667 128 110 88 0
1.054308 5.059351 0.454640 125 109 84 0
1.068859 5.058267 0.460528 123 106 86 0
1.083204 5.057197 0.466333 127 107 96 0
1.097349 5.056142 0.472056 124 107 84 0
1.111296 5.055102 0.477700 128 109 95 0
1.125050 5.054077 0.483265 124 112 90 0
1.138615 5.053065 0.488754 123 110 93 0
1.151994 5.052068 0.494168 124 111 90 0
1.165193 5.051084 0.499509 130 112 90 0
1.178214 5.050112 0.504778 126 113 88 0
1.191060 5.049155 0.509976 123 112 88 0
1.203736 5.048209 0.515105 130 110 96 0
1.216244 5.047277 0.520167 129 112 92 0
1.228589 5.046356 0.525162 127 110 92 0
1.240772 5.045448 0.530092 131 114 94 0
1.252798 5.044551 0.534958 127 116 94 0
1.264669 5.043666 0.539762 127 109 85 0
1.276389 5.042792 0.544504 127 114 95 0
1.287960 5.041929 0.549186 134 117 97 0
1.299384 5.041077 0.553809 131 114 96 0
1.310666 5.040236 0.558374 129 112 92 0
1.321807 5.039405 0.562882 134 115 100 0
1.332810 5.038585 0.567334 134 117 93 0
1.343677 5.037775 0.571732 132 113 99 0
1.354412 5.036974 0.576075 136 121 93 0
1.365016 5.036183 0.580366 134 117 96 0
1.375491 5.035402 0.584605 131 115 98 0
1.385842 5.034631 0.588793 138 119 104 0
1.396068 5.033868 0.592932 133 117 97 0
1.406173 5.033114 0.597020 135 120 97 0
1.416159 5.032370 0.601061 138 120 96 0
1.426028 5.031634 0.605054 134 122 100 0
1.435781 5.030907 0.609001 144 123 102 0
1.445422 5.030188 0.612902 143 126 110 0
1.454952 5.029477 0.616758 147 129 105 0
1.464372 5.028775 0.620570 145 127 107 0
1.473685 5.028080 0.624339 145 125 101 0
1.482892 5.027394 0.628064 148 128 106 0
1.491996 5.026715 0.631748 150 131 109 0
1.500997 5.026044 0.635390 154 130 115 0
1.509898 5.025380 0.638992 153 136 111 0
1.518701 5.024724 0.642554 151 134 115 0
1.527407 5.024075 0.646077 157 138 124 0
1.536017 5.023433 0.649561 157 136 117 0
1.544534 5.022798 0.653007 159 138 119 0
1.552958 5.022170 0.656416 157 138 124 0
1.561291 5.021548 0.659788 159 140 126 0
1.569535 5.020933 0.663124 161 140 119 0
1.577691 5.020325 0.666424 159 141 121 0
1.585761 5.019723 0.669690 163 147 122 0
1.593745 5.019128 0.672920 162 144 120 0
1.601645 5.018539 0.676117 163 144 114 0
1.609464 5.017956 0.679281 159 141 115 0
1.617200 5.017379 0.682411 163 142 121 0
1.624857 5.016808 0.685510 159 139 121 0
1.632435 5.016243 0.688576 160 145 120 0
1.639936 5.015684 0.691611 166 145 118 0
1.647360 5.015130 0.694615 166 144 124 0
1.654709 5.014582 0.697589 162 148 117 0
1.661984 5.014040 0.700533 165 144 126 0
1.669186 5.013503 0.703447 167 146 129 0
1.676316 5.012971 0.706332 170 147 119 0
1.683376 5.012444 0.709189 165 146 124 0
1.690365 5.011924 0.712017 160 144 121 0
1.697286 5.011407 0.714818 129 114 93 0
1.704140 5.010897 0.717591 100 85 64 0
1.710927 5.010390 0.720337 63 51 36 0
1.717648 5.009889 0.723057 27 20 8 0
1.724303 5.009393 0.725750 22 18 7 0
1.730896 5.008902 0.728418 22 18 7 0
1.737425 5.008414 0.731060 22 18 7 0
1.743893 5.007932 0.733677 24 18 7 0
1.750299 5.007455 0.736269 22 18 11 0
1.756644 5.006981 0.738837 20 17 8 0
1.762931 5.006513 0.741381 20 17 7 0
1.769159 5.006048 0.743901 21 15 5 0
1.775329 5.005589 0.746397 42 35 22 0
1.921178 4.770455 0.881916 81 68 49 0
1.924778 4.771964 0.882766 121 101 74 0
1.926435 4.776760 0.881759 160 129 100 0
1.927095 4.783306 0.879776 172 138 103 0
1.929321 4.787181 0.879298 170 137 104 0
1.930012 4.793767 0.877313 170 135 106 0
1.929611 4.802352 0.874233 172 137 104 0
1.930614 4.808518 0.872510 175 141 104 0
1.932346 4.813416 0.871496 166 136 98 0
1.933910 4.818648 0.870304 167 137 115 0
1.932812 4.828826 0.866416 166 137 105 0
1.934674 4.833618 0.865487 168 135 104 0
1.935382 4.840605 0.863372 172 136 105 0
1.936832 4.846249 0.861996 163 129 89 0
1.937778 4.852901 0.860086 153 123 91 0
1.945663 4.846188 0.865366 144 115 81 0
1.948978 4.848205 0.865935 135 106 74 0
1.952282 4.850215 0.866502 132 97 69 0
1.955575 4.852219 0.867067 132 103 71 0
1.958857 4.854216 0.867631 129 101 62 0
1.962129 4.856206 0.868193 135 103 82 0
1.965390 4.858190 0.868752 133 103 79 0
1.968640 4.860168 0.869310 140 106 79 0
1.971879 4.862138 0.869866 144 112 79 0
1.975108 4.864103 0.870421 144 114 82 0
1.978327 4.866061 0.870973 141 114 84 0
1.981535 4.868012 0.871524 145 114 86 0
1.984733 4.869958 0.872073 145 114 84 0
1.987920 4.871897 0.872620 148 114 86 0
1.991096 4.873830 0.873165 148 116 90 0
1.994263 4.875756 0.873709 159 120 95 0
1.997420 4.877676 0.874251 149 119 85 0
2.000566 4.879591 0.874791 150 125 91 0
2.003702 4.881499 0.875329 155 122 103 0
2.006828 4.883401 0.875866 155 120 90 0
2.009944 4.885297 0.876401 149 115 90 0
1.400908 4.022146 0.935293 125 104 75 0
1.401139 4.025590 0.934195 112 95 88 0
1.401369 4.029049 0.933093 120 98 81 0
1.401601 4.032524 0.931985 121 94 87 0
1.401834 4.036014 0.930873 121 99 95 0
1.402068 4.039519 0.929755 117 103 74 0
1.402303 4.043040 0.928633 124 101 96 0
1.402539 4.046576 0.927506 121 102 86 0
1.402776 4.050129 0.926373 118 103 82 0
1.403015 4.053697 0.925236 119 103 85 0
1.403254 4.057281 0.924093 126 105 86 0
1.403494 4.060882 0.922946 120 100 77 0
1.403736 4.064498 0.921793 120 97 84 0
1.403978 4.068131 0.920635 127 103 93 0
1.404222 4.071781 0.919472 121 105 88 0
1.404467 4.075447 0.918303 120 106 77 0
1.404712 4.079129 0.917129 119 104 85 0
1.404959 4.082829 0.915950 116 105 75 0
1.405208 4.086545 0.914766 123 106 90 0
1.405457 4.090278 0.913576 123 106 90 0
1.405707 4.094028 0.912380 116 104 82 0
1.405959 4.097796 0.911179 119 106 89 0
1.406211 4.101581 0.909973 119 105 80 0
1.406465 4.105383 0.908761 119 103 79 0
1.406720 4.109203 0.907543 121 106 86 0
1.406976 4.113041 0.906320 125 103 84 0
1.407233 4.116897 0.905091 121 101 84 0
1.407492 4.120770 0.903856 120 107 88 0
1.407752 4.124662 0.902615 118 101 84 0
1.408013 4.128572 0.901369 117 106 84 0
1.408275 4.132500 0.900117 119 112 87 0
1.408539 4.136447 0.898859 115 105 85 0
1.408803 4.140412 0.897595 117 100 72 0
1.409069 4.144396 0.896325 117 101 85 0
1.409337 4.148399 0.895049 119 108 89 0
1.409605 4.152421 0.893767 124 107 87 0
1.409875 4.156462 0.892479 123 101 77 0
1.410146 4.160522 0.891185 124 106 82 0
1.410418 4.164602 0.889884 124 107 91 0
1.410692 4.168702 0.888577 119 103 84 0
1.410967 4.172821 0.887264 120 109 84 0
1.411243 4.176960 0.885945 120 105 89 0
1.411521 4.181118 0.884619 117 105 89 0
1.411800 4.185297 0.883287 117 105 88 0
1.412080 4.189497 0.881949 118 105 88 0
1.412362 4.193717 0.880604 117 103 96 0
1.412645 4.197957 0.879252 116 102 80 0
1.412929 4.202218 0.877894 119 107 85 0
1.413215 4.206500 0.876529 116 110 88 0
1.413502 4.210803 0.875157 119 106 89 0
1.413791 4.215127 0.873779 106 93 75 0
1.414081 4.219472 0.872394 105 89 77 0
1.414373 4.223839 0.871002 99 89 73 0
0.097287 4.584691 0.241497 101 90 78 0
0.103693 4.593405 0.240953 101 93 76 0
0.114908 4.600774 0.242718 94 86 73 0
0.135689 4.605379 0.249104 97 83 72 0
0.178484 4.603491 0.266171 95 82 66 0
0.228796 4.599057 0.286997 96 79 61 0
0.261817 4.599369 0.299557 93 80 61 0
0.325627 4.590101 0.327226 93 83 63 0
0.366364 4.587386 0.343788 91 89 61 0
0.415380 4.581753 0.364531 101 86 63 0
0.439910 4.583474 0.373348 108 91 71 0
0.445519 4.591105 0.372872 114 99 76 0
1.398206 4.289209 0.842289 118 106 91 0
1.398421 4.294024 0.840713 123 113 96 0
1.398637 4.298866 0.839129 123 105 85 0
1.398854 4.303734 0.837536 130 113 93 0
1.399072 4.308627 0.835935 129 113 98 0
1.399292 4.313547 0.834325 132 113 97 0
1.399513 4.318494 0.832706 130 116 99 0
1.399735 4.323467 0.831078 132 116 96 0
1.399958 4.328468 0.829442 128 113 92 0
1.400182 4.333496 0.827797 125 114 92 0
1.400408 4.338551 0.826142 129 113 92 0
1.400635 4.343634 0.824479 123 110 90 0
1.400863 4.348745 0.822807 124 112 90 0
1.401093 4.353884 0.821125 120 107 90 0
1.401323 4.359051 0.819434 120 102 92 0
1.401555 4.364247 0.817733 122 107 86 0
1.401788 4.369472 0.816024 119 109 84 0
1.402023 4.374726 0.814304 115 107 86 0
